171930.944	433234.394	6.904
171931.060	433234.924	7.204
171931.084	433235.333	6.822
171931.193	433235.850	7.069
171931.242	433236.291	6.868
171931.363	433236.819	7.218
171931.429	433237.280	7.150
171931.518	433237.766	7.260
171931.628	433238.274	7.541
171931.661	433238.697	7.214
171931.723	433239.152	7.117
171931.818	433239.640	7.277
171931.901	433240.114	7.352
171931.944	433240.552	7.103
171932.026	433241.024	7.163
171932.139	433241.521	7.482
171932.220	433241.990	7.548
171932.328	433242.477	7.833
171932.370	433242.915	7.577
171932.468	433243.392	7.778
171932.493	433243.820	7.378
171932.565	433244.280	7.366
171932.635	433244.738	7.337
171932.695	433245.191	7.221
171932.766	433245.651	7.207
171932.837	433246.110	7.185
171932.906	433246.568	7.146
171932.984	433247.029	7.189
171933.053	433247.487	7.154
171933.121	433247.945	7.113
171927.664	433217.806	6.427
171927.767	433218.375	6.536
171927.836	433218.870	6.444
171932.333	433232.180	28.675
171931.771	433233.486	21.448
171931.792	433233.824	21.140
171929.848	433231.119	6.970
171929.910	433231.580	6.861
171930.011	433232.099	7.026
171930.077	433232.565	6.952
171930.144	433233.032	6.880
171930.219	433233.510	6.869
171930.331	433234.037	7.123
171930.415	433234.525	7.186
171930.442	433234.937	6.822
171930.542	433235.443	6.997
171930.636	433235.941	7.136
171930.712	433236.414	7.141
171930.817	433236.921	7.364
171930.856	433237.350	7.090
171931.004	433237.902	7.652
171931.010	433238.295	7.117
171931.078	433238.757	7.066
171931.147	433239.219	7.017
171931.223	433239.689	7.030
171931.322	433240.179	7.223
171931.412	433240.658	7.349
171931.505	433241.139	7.498
171931.605	433241.623	7.709
171931.638	433242.052	7.379
171931.724	433242.524	7.476
171931.818	433243.000	7.645
171931.873	433243.447	7.490
171931.930	433243.897	7.357
171931.993	433244.352	7.266
171932.055	433244.806	7.168
171932.129	433245.267	7.171
171932.208	433245.730	7.216
171932.276	433246.187	7.165
171932.346	433246.646	7.135
171932.410	433247.102	7.059
171929.362	433218.193	26.863
171927.160	433217.969	6.635
171927.256	433218.520	6.698
171932.125	433229.889	35.161
171931.838	433232.575	28.454
171929.059	433229.702	6.796
171931.439	433233.875	22.786
171931.577	433234.390	23.301
171929.313	433231.196	6.937
171929.386	433231.674	6.906
171929.487	433232.192	7.071
171929.547	433232.648	6.948
171929.621	433233.125	6.925
171929.726	433233.644	7.128
171929.771	433234.078	6.896
171929.847	433234.555	6.890
171929.948	433235.064	7.073
171930.033	433235.551	7.141
171930.116	433236.033	7.192
171930.207	433236.524	7.304
171930.256	433236.964	7.106
171930.348	433237.455	7.234
171930.402	433237.901	7.070
171930.485	433238.378	7.124
171930.577	433238.865	7.260
171930.648	433239.329	7.231
171930.755	433239.827	7.480
171930.828	433240.290	7.466
171930.911	433240.762	7.534
171930.971	433241.213	7.426
171931.051	433241.681	7.469
171931.100	433242.124	7.268
171931.215	433242.617	7.602
171931.259	433243.057	7.356
171931.343	433243.525	7.438
171931.418	433243.986	7.444
171931.459	433244.427	7.165
171931.541	433244.892	7.235
171931.631	433245.361	7.377
171931.688	433245.813	7.234
171931.826	433246.728	7.153
171931.888	433247.184	7.047
171931.968	433247.645	7.102
171932.057	433248.108	7.239
171928.786	433218.235	26.768
171926.574	433218.018	6.518
171926.654	433218.536	6.488
171931.666	433230.628	35.015
171931.622	433231.989	32.569
171931.629	433232.250	32.239
171931.348	433231.978	30.035
171931.423	433232.637	29.744
171931.307	433232.694	28.584
171931.203	433232.780	27.489
171931.153	433232.966	26.738
171931.013	433233.577	24.524
171930.996	433233.840	23.976
171928.654	433230.766	6.784
171928.770	433231.310	7.049
171928.841	433231.783	6.999
171928.910	433232.254	6.942
171929.001	433232.754	7.032
171929.104	433233.272	7.223
171929.166	433233.730	7.115
171929.229	433234.188	7.010
171929.314	433234.677	7.072
171929.385	433235.145	7.030
171929.476	433235.639	7.137
171929.597	433236.168	7.472
171929.649	433236.610	7.292
171929.692	433237.043	7.044
171929.803	433237.554	7.309
171929.862	433238.006	7.185
171929.923	433238.460	7.072
171930.018	433238.949	7.228
171930.097	433239.421	7.258
171930.178	433239.892	7.300
171930.265	433240.369	7.395
171930.320	433240.816	7.236
171930.390	433241.277	7.197
171930.504	433241.773	7.516
171930.581	433242.238	7.542
171930.667	433242.708	7.639
171930.707	433243.144	7.354
171930.789	433243.611	7.416
171930.845	433244.060	7.264
171930.941	433244.534	7.450
171930.997	433244.984	7.303
171931.072	433245.444	7.306
171931.136	433245.899	7.222
171931.214	433246.361	7.260
171931.278	433246.816	7.172
171931.352	433247.276	7.175
171931.429	433247.736	7.200
171928.341	433218.269	27.610
171928.226	433218.232	26.605
171929.251	433222.571	29.610
171925.944	433217.546	6.475
171926.036	433218.090	6.507
171926.141	433218.662	6.626
171930.592	433234.102	24.783
171928.103	433230.445	7.185
171928.172	433230.916	7.120
171928.225	433231.361	6.942
171928.336	433231.895	7.172
171928.409	433232.371	7.144
171928.472	433232.830	7.040
171928.552	433233.314	7.056
171928.648	433233.819	7.191
171928.707	433234.271	7.057
171928.795	433234.763	7.139
171928.890	433235.262	7.273
171928.947	433235.711	7.126
171929.068	433236.240	7.461
171929.103	433236.662	7.153
171929.245	433237.210	7.651
171929.258	433237.608	7.171
171929.327	433238.071	7.124
171929.438	433238.578	7.395
171929.484	433239.015	7.167
171929.617	433239.539	7.611
171929.650	433239.964	7.279
171929.726	433240.430	7.285
171929.809	433240.903	7.353
171929.894	433241.375	7.432
171929.956	433241.828	7.327
171930.042	433242.300	7.422
171930.117	433242.762	7.421
171930.256	433243.269	7.956
171930.253	433243.676	7.316
171930.339	433244.144	7.411
171930.436	433244.618	7.608
171930.487	433245.064	7.410
171930.547	433245.516	7.285
171930.608	433245.970	7.172
171930.676	433246.427	7.120
171930.741	433246.884	7.041
171930.833	433247.349	7.193
171930.907	433247.808	7.199
171928.583	433221.889	29.725
171928.549	433222.056	29.161
171931.047	433234.787	33.190
171930.438	433234.012	28.734
171928.215	433230.589	13.331
171930.161	433234.103	26.038
171927.912	433230.775	10.255
171927.736	433230.847	8.522
171927.636	433231.051	7.299
171927.672	433231.470	7.005
171927.748	433231.949	6.984
171927.848	433232.464	7.140
171927.926	433232.946	7.143
171927.995	433233.413	7.081
171928.075	433233.896	7.100
171928.199	433234.435	7.433
171928.244	433234.869	7.204
171928.351	433235.383	7.426
171928.390	433235.808	7.142
171928.473	433236.290	7.194
171928.548	433236.760	7.179
171928.732	433237.356	7.990
171928.718	433237.723	7.315
171928.833	433238.234	7.612
171928.867	433238.657	7.294
171928.968	433239.151	7.489
171929.031	433239.605	7.392
171929.139	433240.101	7.641
171929.173	433240.528	7.322
171929.261	433241.003	7.419
171929.342	433241.472	7.470
171929.405	433241.926	7.374
171929.497	433242.401	7.509
171929.557	433242.852	7.389
171929.668	433243.339	7.687
171929.773	433243.818	7.938
171929.784	433244.238	7.419
171929.855	433244.696	7.388
171929.934	433245.158	7.429
171930.014	433245.620	7.472
171930.064	433246.068	7.269
171930.136	433246.526	7.248
171930.213	433246.986	7.268
171930.283	433247.443	7.232
171926.796	433218.346	23.540
171924.835	433217.724	6.432
171930.319	433234.512	31.795
171927.849	433230.618	14.899
171926.918	433230.121	7.079
171926.992	433230.599	7.040
171927.095	433231.123	7.207
171927.164	433231.593	7.145
171927.254	433232.092	7.221
171927.306	433232.535	7.038
171927.383	433233.015	7.032
171927.480	433233.522	7.164
171927.550	433233.990	7.115
171927.638	433234.481	7.185
171927.732	433234.979	7.307
171927.803	433235.446	7.265
171927.967	433236.028	7.900
171927.969	433236.408	7.356
171928.037	433236.870	7.293
171928.206	433237.447	7.987
171928.285	433237.916	8.007
171928.281	433238.296	7.403
171928.397	433238.806	7.713
171928.445	433239.243	7.495
171928.541	433239.729	7.654
171928.613	433240.190	7.628
171928.666	433240.634	7.457
171928.728	433241.086	7.347
171928.817	433241.562	7.457
171928.909	433242.038	7.589
171929.036	433242.539	8.010
171929.124	433243.008	8.118
171929.208	433243.472	8.199
171929.275	433243.925	8.143
171929.399	433244.412	8.556
171929.351	433244.796	7.535
171929.411	433245.247	7.417
171929.497	433245.712	7.509
171929.565	433246.168	7.456
171929.630	433246.622	7.375
171929.698	433247.078	7.316
171929.792	433247.543	7.489
171929.861	433247.999	7.445
171926.763	433220.515	25.232
171928.268	433226.826	29.600
171928.279	433227.359	28.900
171929.669	433232.168	34.456
171929.591	433233.502	31.742
171929.490	433234.637	29.124
171926.346	433229.814	7.514
171926.439	433230.682	7.068
171926.554	433231.223	7.313
171926.615	433231.680	7.192
171926.698	433232.168	7.220
171926.812	433232.702	7.473
171926.852	433233.127	7.205
171926.921	433233.592	7.134
171927.023	433234.104	7.308
171927.105	433234.586	7.340
171927.175	433235.052	7.286
171927.304	433235.592	7.664
171927.335	433236.006	7.323
171927.437	433236.510	7.511
171927.498	433236.961	7.390
171927.671	433237.542	8.113
171927.776	433238.040	8.330
171927.738	433238.381	7.470
171927.838	433238.873	7.653
171927.910	433239.335	7.622
171927.995	433239.809	7.692
171928.047	433240.251	7.509
171928.114	433240.707	7.436
171928.179	433241.162	7.356
171928.326	433241.686	7.920
171928.333	433242.092	7.380
171928.494	433242.620	8.068
171928.554	433243.068	7.949
171928.692	433243.570	8.465
171928.707	433243.986	7.974
171928.799	433244.455	8.119
171928.795	433244.866	7.464
171928.863	433245.322	7.406
171928.944	433245.784	7.459
171929.015	433246.241	7.425
171929.067	433246.690	7.235
171929.145	433247.151	7.266
171929.309	433248.071	7.384
171925.750	433219.416	22.577
171926.116	433220.565	24.201
171925.586	433219.585	20.825
171927.243	433224.251	28.987
171924.631	433218.561	13.629
171927.673	433225.979	30.333
171923.871	433218.508	6.767
171927.845	433228.126	28.694
171927.348	433230.504	20.593
171927.263	433230.655	19.591
171927.202	433230.855	18.731
171928.739	433234.043	28.010
171925.653	433229.249	6.985
171925.832	433230.257	7.111
171925.935	433230.780	7.265
171926.034	433231.295	7.403
171926.110	433231.773	7.380
171926.190	433232.256	7.388
171926.271	433232.741	7.409
171926.330	433233.191	7.267
171926.415	433233.679	7.312
171926.575	433234.639	7.343
171926.668	433235.134	7.455
171926.746	433235.607	7.452
171926.815	433236.070	7.394
171926.898	433236.549	7.436
171926.988	433237.035	7.529
171927.149	433237.600	8.154
171927.276	433238.123	8.538
171927.221	433238.444	7.551
171927.345	433238.961	7.910
171927.432	433239.437	7.998
171927.467	433239.860	7.684
171927.504	433240.288	7.383
171927.588	433240.759	7.438
171927.743	433241.690	7.467
171927.857	433242.183	7.767
171928.032	433242.719	8.563
171928.102	433243.172	8.533
171928.161	433243.617	8.406
171928.223	433244.064	8.301
171928.266	433244.500	8.040
171928.295	433244.931	7.663
171928.362	433245.385	7.595
171928.434	433245.842	7.568
171928.505	433246.298	7.535
171928.572	433246.752	7.464
171928.622	433247.201	7.256
171928.713	433247.665	7.388
171928.779	433248.120	7.314
171925.573	433218.840	27.074
171925.492	433219.689	25.070
171926.490	433223.368	28.646
171926.270	433223.116	27.025
171926.476	433223.849	27.806
171923.363	433219.062	6.626
171927.219	433228.845	27.091
171927.833	433230.833	29.706
171927.103	433229.708	24.740
171925.144	433229.415	7.351
171925.302	433230.385	7.333
171925.374	433230.860	7.285
171925.460	433231.353	7.326
171925.556	433231.861	7.438
171925.632	433232.338	7.417
171925.715	433232.824	7.448
171925.776	433233.279	7.325
171925.864	433233.770	7.390
171925.977	433234.293	7.633
171926.036	433234.743	7.499
171926.162	433235.280	7.845
171926.188	433235.686	7.472
171926.288	433236.185	7.629
171926.375	433236.668	7.700
171926.455	433237.141	7.725
171926.615	433237.704	8.341
171926.679	433238.154	8.244
171926.710	433238.570	7.904
171926.772	433239.019	7.793
171926.828	433239.465	7.644
171926.938	433239.962	7.901
171926.946	433240.361	7.373
171927.004	433240.810	7.231
171927.197	433241.773	7.546
171927.394	433242.331	8.507
171927.504	433242.814	8.781
171927.550	433243.248	8.553
171927.568	433243.664	8.090
171927.653	433244.128	8.173
171927.755	433244.601	8.397
171927.775	433245.024	7.940
171927.811	433245.461	7.614
171927.921	433245.936	7.905
171927.972	433246.381	7.703
171928.015	433246.825	7.434
171928.084	433247.281	7.375
171928.165	433247.741	7.428
171925.391	433217.846	31.854
171925.405	433218.365	31.205
171925.138	433218.412	28.714
171925.711	433220.857	30.259
171926.789	433227.324	30.356
171923.331	433222.270	6.560
171926.662	433229.142	26.491
171923.512	433223.319	6.631
171927.696	433233.988	28.617
171924.867	433230.996	7.443
171924.935	433231.461	7.359
171925.039	433231.981	7.529
171925.125	433232.471	7.576
171925.195	433232.937	7.510
171925.269	433233.408	7.475
171925.365	433233.910	7.599
171925.409	433234.340	7.355
171925.541	433234.886	7.737
171925.594	433235.327	7.557
171925.661	433235.786	7.477
171925.770	433236.297	7.702
171925.884	433236.810	7.969
171925.945	433237.259	7.848
171926.040	433237.748	7.984
171926.109	433238.206	7.926
171926.187	433238.672	7.930
171926.232	433239.104	7.691
171926.329	433239.590	7.847
171926.381	433240.030	7.661
171926.429	433240.468	7.439
171926.623	433241.038	8.351
171926.718	433241.513	8.498
171926.787	433241.966	8.451
171926.876	433242.433	8.554
171926.886	433242.841	8.037
171927.006	433243.331	8.392
171927.051	433243.767	8.147
171927.128	433244.225	8.161
171927.236	433244.700	8.424
171927.269	433245.132	8.087
171927.305	433245.567	7.761
171927.413	433246.040	8.033
171927.443	433246.476	7.652
171927.498	433246.925	7.482
171927.569	433247.381	7.443
171927.645	433247.839	7.447
171925.210	433220.821	30.870
171922.002	433217.664	6.594
171922.173	433218.715	6.563
171926.253	433228.970	28.111
171925.272	433229.985	17.727
171924.827	433230.850	12.402
171924.507	433230.680	9.767
171924.307	433231.077	7.369
171924.411	433231.596	7.527
171924.507	433232.102	7.639
171924.586	433232.582	7.639
171924.649	433233.037	7.524
171924.734	433233.524	7.567
171924.800	433233.984	7.477
171924.900	433234.488	7.623
171924.990	433234.977	7.703
171925.074	433235.458	7.748
171925.146	433235.923	7.707
171925.230	433236.401	7.746
171925.350	433236.921	8.053
171925.440	433237.403	8.147
171925.482	433237.830	7.891
171925.548	433238.284	7.804
171925.601	433238.724	7.622
171925.696	433239.209	7.756
171925.765	433239.666	7.695
171925.808	433240.099	7.441
171926.055	433240.721	8.744
171926.093	433241.145	8.456
171926.056	433241.507	7.578
171926.298	433242.105	8.872
171926.268	433242.478	8.037
171926.430	433243.001	8.726
171926.439	433243.409	8.192
171926.496	433243.854	8.045
171926.619	433244.341	8.425
171926.719	433244.810	8.630
171926.706	433245.215	7.906
171926.746	433245.653	7.610
171926.817	433246.109	7.574
171926.907	433246.573	7.690
171926.967	433247.024	7.559
171927.021	433247.473	7.372
171925.829	433228.711	29.453
171925.886	433229.083	29.414
171925.522	433229.978	24.791
171925.032	433231.465	18.146
171924.658	433231.164	15.224
171924.234	433230.806	11.941
171923.650	433230.218	7.554
171923.729	433230.701	7.542
171923.838	433231.229	7.736
171923.873	433231.643	7.430
171923.987	433232.175	7.658
171924.066	433232.654	7.658
171924.145	433233.131	7.650
171924.220	433233.604	7.625
171924.300	433234.082	7.632
171924.417	433234.607	7.895
171924.479	433235.059	7.781
171924.580	433235.561	7.942
171924.673	433236.050	8.048
171924.747	433236.515	8.020
171924.804	433236.958	7.867
171924.948	433237.503	8.352
171924.947	433237.880	7.773
171925.011	433238.333	7.676
171925.073	433238.784	7.562
171925.186	433239.286	7.824
171925.228	433239.716	7.557
171925.335	433240.210	7.785
171925.423	433240.683	7.868
171925.583	433241.219	8.514
171925.607	433241.633	8.110
171925.653	433242.068	7.875
171925.787	433242.573	8.323
171925.902	433243.060	8.636
171925.926	433243.478	8.220
171926.037	433243.959	8.499
171926.075	433244.390	8.197
171926.202	433244.877	8.619
171926.207	433245.291	8.044
171926.257	433245.734	7.828
171926.314	433246.182	7.673
171926.378	433246.634	7.570
171926.452	433247.090	7.559
171926.546	433247.554	7.708
171925.392	433228.510	30.901
171925.014	433229.578	25.903
171922.204	433225.233	7.161
171922.607	433227.705	7.074
171924.523	433231.607	18.455
171924.350	433231.636	16.858
171923.180	433230.782	7.623
171923.274	433231.286	7.710
171923.338	433231.743	7.598
171923.405	433232.204	7.507
171923.513	433232.726	7.699
171923.576	433233.180	7.585
171923.658	433233.661	7.599
171923.742	433234.145	7.635
171923.840	433234.644	7.761
171923.961	433235.172	8.056
171924.019	433235.618	7.916
171924.118	433236.114	8.060
171924.176	433236.559	7.915
171924.295	433237.076	8.211
171924.344	433237.510	8.002
171924.383	433237.933	7.717
171924.477	433238.418	7.836
171924.533	433238.861	7.672
171924.624	433239.342	7.777
171924.700	433239.805	7.766
171924.787	433240.278	7.836
171924.853	433240.731	7.751
171924.945	433241.207	7.866
171925.002	433241.651	7.707
171925.109	433242.138	7.945
171925.198	433242.607	8.038
171925.315	433243.096	8.361
171925.399	433243.558	8.420
171925.474	433244.013	8.411
171925.535	433244.459	8.297
171925.612	433244.915	8.304
171925.640	433245.344	7.916
171925.690	433245.787	7.700
171925.761	433246.242	7.654
171925.822	433246.693	7.531
171925.899	433247.151	7.530
171925.968	433247.605	7.471
171926.067	433248.070	7.663
171923.508	433220.316	31.128
171924.956	433227.559	33.248
171920.492	433218.843	6.336
171924.548	433229.234	27.087
171923.876	433230.561	19.083
171923.442	433230.447	15.371
171922.295	433228.872	7.465
171922.374	433229.356	7.445
171922.486	433229.892	7.639
171922.559	433230.366	7.586
171922.657	433230.878	7.700
171922.737	433231.359	7.691
171922.812	433231.833	7.656
171922.887	433232.307	7.623
171922.992	433232.821	7.787
171923.072	433233.300	7.789
171923.137	433233.756	7.686
171923.223	433234.241	7.732
171923.330	433234.753	7.927
171923.381	433235.188	7.725
171923.502	433235.714	8.023
171923.571	433236.173	7.953
171923.695	433236.697	8.276
171923.758	433237.147	8.173
171923.820	433237.594	8.051
171923.887	433238.049	7.972
171923.933	433238.481	7.738
171924.015	433238.952	7.771
171924.091	433239.416	7.758
171924.166	433239.878	7.737
171924.241	433240.340	7.718
171924.354	433240.836	7.988
171924.451	433241.314	8.132
171924.586	433241.824	8.585
171924.596	433242.226	8.064
171924.698	433242.706	8.266
171924.760	433243.153	8.154
171924.912	433243.663	8.746
171924.961	433244.099	8.531
171925.025	433244.546	8.436
171925.074	433244.985	8.215
171925.127	433245.428	8.026
171925.181	433245.873	7.849
171925.239	433246.320	7.694
171925.303	433246.772	7.591
171925.367	433247.225	7.491
171925.457	433247.687	7.601
171925.536	433248.144	7.624
171920.446	433218.050	12.189
171920.384	433218.231	11.364
171920.291	433218.349	10.355
171920.249	433218.585	9.630
171920.265	433218.950	9.228
171920.097	433218.922	7.764
171922.842	433229.167	16.932
171923.388	433230.437	19.904
171921.446	433227.384	7.139
171922.943	433230.286	16.157
171921.652	433228.440	7.390
171921.725	433228.916	7.329
171921.829	433229.443	7.472
171921.935	433229.969	7.628
171922.023	433230.465	7.671
171922.107	433230.954	7.689
171922.217	433231.481	7.882
171922.289	433231.950	7.828
171922.344	433232.392	7.651
171922.447	433232.904	7.805
171922.521	433233.374	7.768
171922.594	433233.840	7.714
171922.684	433234.331	7.789
171922.785	433234.833	7.935
171923.133	433235.652	9.818
171923.119	433235.998	9.172
171923.032	433236.259	8.001
171923.112	433236.731	8.011
171923.194	433237.203	8.034
171923.272	433237.670	8.031
171923.315	433238.097	7.775
171923.386	433238.557	7.727
171923.472	433239.031	7.780
171923.553	433239.500	7.806
171923.643	433239.976	7.893
171923.802	433240.905	7.918
171923.887	433241.374	7.974
171924.009	433241.872	8.318
171924.088	433242.333	8.340
171924.192	433242.812	8.551
171924.257	433243.259	8.459
171924.372	433243.742	8.765
171924.389	433244.157	8.293
171924.474	433244.618	8.356
171924.542	433245.068	8.294
171924.571	433245.497	7.907
171924.730	433245.996	8.582
171924.705	433246.401	7.753
171924.769	433246.853	7.650
171924.839	433247.307	7.589
171924.926	433247.767	7.680
171920.215	433217.850	15.184
171920.192	433218.103	14.599
171923.660	433228.679	29.650
171923.589	433229.048	28.455
171920.026	433222.306	6.815
171920.205	433223.345	6.853
171922.938	433230.027	21.185
171922.390	433229.351	17.319
171920.974	433227.538	7.422
171922.735	433231.191	17.634
171921.223	433229.017	7.422
171921.319	433229.528	7.508
171921.418	433230.042	7.615
171921.521	433230.562	7.755
171921.593	433231.032	7.695
171921.667	433231.504	7.648
171921.747	433231.985	7.642
171921.864	433232.517	7.880
171921.926	433232.969	7.754
171922.011	433233.453	7.785
171922.100	433233.943	7.848
171922.190	433234.431	7.913
171922.973	433235.829	12.797
171922.355	433235.385	7.955
171922.435	433235.857	7.961
171922.508	433236.321	7.920
171922.601	433236.807	8.019
171922.688	433237.284	8.071
171922.734	433237.715	7.843
171922.801	433238.169	7.753
171922.889	433238.646	7.823
171922.961	433239.106	7.778
171923.054	433239.586	7.882
171923.137	433240.055	7.920
171923.231	433240.533	8.040
171923.267	433240.957	7.729
171923.421	433241.486	8.307
171923.524	433241.967	8.503
171923.635	433242.451	8.762
171923.685	433242.887	8.559
171923.755	433243.338	8.507
171923.816	433243.782	8.378
171923.881	433244.231	8.291
171923.962	433244.689	8.325
171924.040	433245.145	8.331
171924.103	433245.593	8.222
171924.200	433246.058	8.392
171924.211	433246.481	7.851
171924.276	433246.932	7.758
171924.340	433247.383	7.647
171924.421	433247.842	7.688
171920.006	433217.547	18.863
171919.982	433217.781	18.298
171919.875	433217.824	17.281
171919.478	433222.395	6.884
171919.598	433222.972	7.080
171919.680	433223.475	7.054
171922.461	433229.933	22.076
171920.504	433228.102	7.435
171920.778	433229.616	7.596
171921.090	433230.468	9.088
171920.978	433230.644	7.825
171921.056	433231.123	7.804
171921.135	433231.601	7.785
171921.223	433232.092	7.827
171921.318	433232.592	7.921
171921.394	433233.064	7.891
171921.496	433233.571	8.039
171921.573	433234.042	8.014
171922.817	433236.075	16.019
171921.785	433235.426	7.821
171921.864	433235.897	7.816
171921.969	433236.398	7.990
171922.059	433236.881	8.069
171922.124	433237.332	7.965
171922.184	433237.779	7.834
171922.248	433238.230	7.725
171922.336	433238.706	7.785
171922.415	433239.173	7.789
171922.492	433239.636	7.775
171922.577	433240.107	7.823
171922.671	433240.586	7.943
171922.820	433241.112	8.478
171922.828	433241.511	7.953
171922.936	433241.996	8.179
171923.052	433242.487	8.477
171923.138	433242.950	8.540
171923.195	433243.392	8.389
171923.308	433243.872	8.665
171923.348	433244.303	8.381
171923.406	433244.747	8.226
171923.496	433245.210	8.332
171923.563	433245.659	8.252
171923.589	433246.088	7.837
171923.660	433246.542	7.792
171923.729	433246.995	7.719
171923.782	433247.442	7.519
171923.873	433247.904	7.639
171918.254	433218.333	7.002
171918.283	433218.733	6.653
171918.834	433221.914	6.757
171918.965	433222.516	7.015
171921.939	433229.159	23.389
171919.421	433225.109	7.163
171919.974	433228.182	7.444
171920.822	433230.618	11.300
171920.331	433230.184	7.608
171920.441	433230.712	7.786
171920.526	433231.200	7.803
171920.641	433231.733	8.026
171920.706	433232.188	7.914
171920.807	433232.696	8.046
171920.849	433233.118	7.785
171922.520	433235.808	18.547
171921.036	433234.107	7.956
171921.095	433234.553	7.808
171921.188	433235.044	7.896
171921.253	433235.497	7.792
171921.355	433235.996	7.943
171921.447	433236.482	8.029
171921.528	433236.953	8.040
171921.596	433237.409	7.965
171921.651	433237.848	7.785
171921.736	433238.323	7.833
171921.831	433238.806	7.942
171921.897	433239.258	7.848
171921.988	433239.735	7.943
171922.162	433240.678	8.071
171922.226	433241.126	7.957
171922.314	433241.596	8.033
171922.512	433242.157	8.948
171922.574	433242.600	8.832
171922.601	433243.016	8.442
171922.678	433243.472	8.439
171922.800	433243.960	8.794
171922.880	433244.415	8.816
171922.900	433244.833	8.366
171922.968	433245.283	8.293
171923.006	433245.717	7.975
171923.054	433246.158	7.739
171923.133	433246.616	7.753
171923.211	433247.073	7.759
171923.278	433247.525	7.668
171923.369	433247.986	7.789
171920.312	433217.948	30.775
171921.293	433225.528	28.060
171921.318	433225.841	27.815
171921.310	433226.082	27.378
171921.401	433227.593	25.910
171921.412	433227.886	25.572
171918.416	433222.600	7.043
171918.513	433223.131	7.098
171918.989	433225.750	7.376
171920.947	433230.817	17.063
171920.673	433230.679	14.852
171919.727	433229.815	7.788
171919.800	433230.286	7.723
171920.041	433231.373	8.228
171920.076	433231.783	7.920
171920.208	433232.337	8.253
171920.237	433232.739	7.902
171920.314	433233.211	7.872
171920.501	433233.835	8.591
171920.534	433234.243	8.267
171920.560	433234.643	7.896
171920.636	433235.112	7.867
171920.725	433235.596	7.928
171920.802	433236.063	7.904
171920.887	433236.540	7.942
171920.972	433237.015	7.972
171921.050	433237.482	7.966
171921.125	433237.945	7.933
171921.207	433238.414	7.951
171921.278	433238.872	7.893
171921.353	433239.332	7.858
171921.446	433239.811	7.963
171921.527	433240.277	7.981
171921.601	433240.735	7.943
171921.684	433241.202	7.977
171921.767	433241.667	8.013
171921.970	433242.231	8.959
171922.007	433242.654	8.655
171922.076	433243.104	8.591
171922.162	433243.566	8.657
171922.228	433244.013	8.567
171922.307	433244.468	8.579
171922.331	433244.890	8.158
171922.392	433245.336	8.026
171922.457	433245.786	7.926
171922.526	433246.238	7.858
171922.598	433246.692	7.813
171922.678	433247.149	7.829
171922.764	433247.608	7.897
171922.832	433248.060	7.819
171919.503	433218.011	28.187
171919.277	433217.958	26.274
171919.004	433217.544	24.485
171917.038	433217.837	6.707
171917.805	433222.143	6.998
171920.563	433231.101	17.864
171919.319	433230.409	7.933
171919.384	433230.865	7.814
171919.466	433231.348	7.812
171919.624	433231.944	8.314
171919.635	433232.319	7.845
171919.713	433232.793	7.823
171919.806	433233.288	7.900
171919.885	433233.761	7.882
171919.990	433234.269	8.042
171920.043	433234.707	7.856
171920.168	433235.238	8.157
171920.220	433235.674	7.966
171920.295	433236.138	7.923
171920.400	433236.638	8.097
171920.455	433237.078	7.922
171920.535	433237.547	7.925
171920.624	433238.025	7.990
171920.718	433238.507	8.097
171920.784	433238.959	8.000
171920.842	433239.402	7.847
171920.949	433239.894	8.050
171921.023	433240.352	8.010
171921.107	433240.820	8.051
171921.239	433241.329	8.448
171921.336	433241.804	8.593
171921.460	433242.299	8.938
171921.446	433242.682	8.240
171921.522	433243.138	8.224
171921.647	433243.630	8.587
171921.705	433244.072	8.438
171921.757	433244.510	8.232
171921.796	433244.943	7.930
171921.871	433245.398	7.907
171921.959	433245.860	7.985
171922.010	433246.303	7.768
171922.091	433246.762	7.802
171922.166	433247.217	7.778
171922.244	433247.673	7.777
171922.326	433248.130	7.818
171919.356	433220.083	28.712
171919.079	433219.925	26.518
171918.848	433219.634	24.919
171916.486	433217.911	6.728
171917.365	433222.773	7.147
171920.509	433231.105	22.274
171920.425	433231.251	21.311
171920.287	433231.313	20.004
171918.436	433228.521	7.922
171918.842	433230.940	7.854
171918.928	433231.427	7.871
171918.985	433231.872	7.708
171919.102	433232.404	7.934
171919.196	433232.901	8.018
171919.327	433233.448	8.347
171919.384	433233.889	8.184
171919.457	433234.353	8.131
171919.489	433234.762	7.799
171919.620	433235.300	8.139
171919.690	433235.758	8.065
171919.766	433236.223	8.031
171919.833	433236.677	7.942
171919.996	433237.617	7.956
171920.097	433238.109	8.109
171920.312	433239.480	7.936
171920.393	433239.946	7.953
171920.487	433240.424	8.060
171920.601	433240.918	8.317
171920.709	433241.405	8.538
171920.887	433241.948	9.284
171920.845	433242.303	8.377
171920.939	433242.773	8.497
171921.008	433243.224	8.432
171921.055	433243.658	8.192
171921.131	433244.113	8.172
171921.189	433244.557	8.015
171921.256	433245.008	7.930
171921.327	433245.460	7.868
171921.406	433245.918	7.876
171921.463	433246.364	7.709
171921.563	433246.831	7.882
171921.638	433247.286	7.858
171921.695	433247.733	7.688
171916.737	433222.307	7.045
171919.449	433228.460	21.592
171919.412	433228.974	20.495
171919.430	433229.302	20.160
171917.680	433227.502	7.502
171917.789	433228.038	7.652
171917.981	433229.060	7.800
171918.057	433229.536	7.749
171918.158	433230.053	7.863
171918.230	433230.520	7.789
171918.333	433231.036	7.919
171918.397	433231.490	7.792
171918.502	433232.005	7.938
171918.589	433232.492	7.971
171918.647	433232.937	7.813
171918.752	433233.448	7.967
171918.833	433233.923	7.960
171918.918	433234.403	7.984
171919.033	433234.922	8.215
171919.080	433235.350	7.982
171919.235	433236.285	7.932
171919.318	433236.758	7.950
171919.389	433237.216	7.883
171919.482	433237.700	7.974
171919.727	433239.105	8.010
171919.814	433239.577	8.063
171919.909	433240.056	8.178
171919.979	433240.509	8.108
171920.102	433241.012	8.434
171920.306	433241.582	9.364
171920.352	433242.009	9.125
171920.348	433242.396	8.504
171920.413	433242.843	8.408
171920.474	433243.287	8.274
171920.514	433243.717	7.975
171920.592	433244.175	7.974
171920.665	433244.629	7.926
171920.739	433245.084	7.891
171920.814	433245.539	7.867
171920.884	433245.992	7.797
171920.986	433246.460	7.987
171921.054	433246.911	7.911
171921.119	433247.361	7.799
171921.208	433247.821	7.887
171918.702	433230.572	16.732
171917.355	433228.646	7.826
171917.427	433229.118	7.753
171917.549	433229.667	7.989
171917.604	433230.108	7.807
171917.706	433230.623	7.925
171917.785	433231.101	7.901
171917.892	433231.620	8.054
171917.956	433232.072	7.930
171918.043	433232.560	7.962
171918.124	433233.036	7.950
171918.187	433233.487	7.823
171918.305	433234.015	8.068
171918.372	433234.469	7.966
171918.445	433234.932	7.905
171918.540	433235.424	8.003
171918.699	433236.363	7.982
171918.774	433236.826	7.941
171918.865	433237.307	8.011
171918.939	433237.768	7.965
171919.122	433238.726	8.127
171919.211	433239.200	8.187
171919.267	433239.639	8.015
171919.699	433240.450	10.584
171919.483	433240.620	8.433
171919.694	433241.202	9.409
171919.727	433241.616	9.069
171919.699	433241.981	8.279
171919.785	433242.446	8.328
171919.848	433242.892	8.211
171919.921	433243.345	8.166
171920.000	433243.803	8.163
171920.063	433244.250	8.044
171920.131	433244.701	7.966
171920.204	433245.155	7.921
171920.280	433245.610	7.898
171920.360	433246.067	7.907
171920.433	433246.521	7.868
171920.516	433246.979	7.902
171920.583	433247.430	7.809
171920.661	433247.886	7.808
171917.280	433217.802	28.088
171915.555	433221.870	6.854
171915.672	433222.442	7.015
171915.895	433223.556	7.283
171916.368	433226.152	7.505
171917.377	433229.600	11.138
171917.225	433229.691	9.673
171917.107	433230.198	7.872
171917.178	433230.663	7.788
171917.295	433231.200	8.005
171917.353	433231.644	7.840
171917.473	433232.180	8.082
171917.541	433232.639	7.989
171917.621	433233.113	7.967
171917.720	433233.615	8.083
171917.787	433234.070	7.978
171917.871	433234.548	7.993
171918.106	433235.955	7.926
171918.270	433236.899	7.940
171918.656	433238.838	8.390
171918.719	433239.283	8.264
171919.454	433240.773	12.448
171919.056	433240.764	8.982
171919.196	433241.278	9.437
171919.129	433241.604	8.359
171919.236	433242.086	8.563
171919.294	433242.526	8.405
171919.352	433242.968	8.249
171919.447	433243.438	8.372
171919.554	433243.914	8.586
171919.596	433244.345	8.309
171919.637	433244.777	8.015
171919.710	433245.230	7.969
171919.791	433245.688	7.986
171919.862	433246.141	7.925
171919.945	433246.599	7.956
171920.008	433247.047	7.832
171920.101	433247.509	7.947
171920.161	433247.957	7.797
171916.816	433217.578	29.241
171916.685	433222.868	20.102
171915.120	433222.504	6.977
171915.255	433223.107	7.245
171915.358	433223.646	7.329
171915.411	433224.091	7.125
171917.274	433230.073	14.354
171917.267	433230.386	13.821
171916.609	433230.339	8.140
171916.666	433230.782	7.970
171916.746	433231.260	7.947
171916.825	433231.735	7.916
171916.878	433232.173	7.724
171916.984	433232.688	7.873
171917.103	433233.218	8.111
171917.171	433233.675	8.014
171917.247	433234.141	7.968
171917.476	433235.542	7.855
171917.590	433236.055	8.072
171917.667	433236.521	8.048
171917.763	433237.007	8.144
171917.830	433237.459	8.048
171917.925	433237.944	8.149
171918.070	433238.481	8.605
171918.094	433238.884	8.203
171919.077	433241.001	13.597
171918.591	433241.673	8.329
171918.711	433242.167	8.632
171918.794	433242.627	8.661
171918.867	433243.078	8.614
171918.946	433243.535	8.619
171918.964	433243.947	8.152
171919.024	433244.391	8.003
171919.103	433244.849	8.004
171919.166	433245.296	7.880
171919.241	433245.751	7.847
171919.329	433246.213	7.915
171919.417	433246.673	7.986
171919.479	433247.121	7.851
171919.548	433247.573	7.778
171919.645	433248.036	7.926
171915.154	433223.638	10.138
171914.956	433223.590	8.480
171914.830	433223.692	7.232
171914.931	433224.224	7.301
171915.360	433226.384	7.777
171916.956	433230.466	15.525
171916.084	433230.389	8.032
171916.147	433230.841	7.900
171916.308	433231.798	7.856
171916.401	433232.293	7.915
171916.496	433232.791	7.996
171916.588	433233.281	8.051
171916.659	433233.742	7.974
171916.759	433234.243	8.092
171916.979	433235.629	7.911
171917.084	433236.130	8.070
171917.182	433236.621	8.183
171917.235	433237.056	7.986
171917.325	433237.535	8.046
171917.417	433238.014	8.118
171917.523	433238.509	8.301
171917.762	433239.143	9.426
171917.706	433239.460	8.458
171918.219	433242.250	8.709
171918.292	433242.702	8.660
171918.309	433243.109	8.189
171918.394	433243.572	8.233
171918.433	433244.001	7.923
171918.530	433244.471	8.061
171918.614	433244.931	8.092
171918.677	433245.378	7.968
171918.753	433245.833	7.945
171918.831	433246.288	7.934
171918.897	433246.738	7.827
171918.990	433247.200	7.940
171919.071	433247.657	7.956
171919.136	433248.106	7.846
171915.106	433223.979	13.839
171914.102	433222.674	7.072
171914.232	433223.267	7.312
171914.336	433223.805	7.396
171914.439	433224.342	7.483
171914.542	433224.877	7.574
171914.646	433225.410	7.668
171914.762	433225.964	7.841
171914.852	433226.467	7.856
171916.736	433230.714	17.831
171915.594	433230.495	8.217
171915.710	433231.028	8.422
171915.772	433231.477	8.284
171915.832	433231.921	8.129
171915.901	433232.380	8.034
171916.022	433232.914	8.279
171916.050	433233.313	7.919
171916.390	433235.229	7.981
171916.483	433235.715	8.050
171916.564	433236.185	8.043
171916.648	433236.659	8.059
171916.735	433237.135	8.096
171916.824	433237.611	8.146
171916.905	433238.079	8.150
171918.969	433240.722	22.119
171917.078	433239.022	8.224
171918.440	433241.156	16.853
171917.667	433242.278	8.426
171917.758	433242.745	8.504
171917.857	433243.217	8.654
171917.855	433243.613	8.037
171917.942	433244.076	8.093
171918.016	433244.530	8.053
171918.088	433244.983	7.995
171918.152	433245.430	7.871
171918.239	433245.891	7.927
171918.315	433246.346	7.906
171918.389	433246.800	7.858
171918.477	433247.260	7.931
171918.554	433247.714	7.908
171915.532	433222.570	24.418
171915.294	433224.290	19.740
171913.373	433221.672	6.988
171913.549	433222.699	6.961
171913.722	433223.373	7.445
171913.851	433223.959	7.679
171913.901	433224.396	7.457
171914.087	433225.424	7.509
171914.187	433225.950	7.587
171914.307	433226.508	7.782
171914.373	433226.970	7.657
171915.039	433230.519	8.065
171915.123	433231.002	8.058
171915.208	433231.487	8.064
171915.305	433231.988	8.149
171915.377	433232.451	8.073
171915.507	433232.997	8.377
171915.528	433233.386	7.968
171915.697	433234.344	7.989
171915.794	433234.837	8.081
171915.879	433235.314	8.099
171915.953	433235.775	8.041
171916.274	433237.647	7.990
171918.254	433241.558	19.287
171918.287	433241.926	19.018
171917.273	433242.839	8.810
171917.297	433243.251	8.388
171917.343	433243.684	8.136
171917.420	433244.139	8.113
171917.484	433244.586	7.994
171917.558	433245.040	7.946
171917.634	433245.495	7.920
171917.722	433245.957	7.986
171917.810	433246.417	8.054
171917.889	433246.872	8.046
171917.948	433247.318	7.881
171918.030	433247.775	7.908
171915.018	433218.811	30.241
171915.085	433219.223	30.199
171915.028	433220.072	28.407
171914.915	433220.310	27.068
171915.038	433224.334	22.032
171912.761	433221.225	6.970
171912.925	433222.232	6.872
171913.068	433222.850	7.174
171913.305	433223.983	7.508
171913.368	433224.445	7.360
171913.471	433224.977	7.441
171913.560	433225.485	7.450
171913.772	433226.553	7.666
171913.870	433227.070	7.731
171914.139	433228.572	7.793
171914.588	433231.050	7.932
171914.680	433231.544	7.976
171914.744	433231.997	7.849
171914.845	433232.503	7.956
171914.943	433233.003	8.047
171915.181	433234.418	7.968
171915.290	433234.927	8.138
171915.382	433235.412	8.204
171915.696	433237.276	8.106
171915.862	433238.214	8.120
171916.171	433239.301	9.154
171916.343	433240.231	9.240
171917.749	433241.972	18.801
171916.568	433241.973	8.547
171918.546	433244.351	22.114
171916.788	433243.330	8.398
171916.875	433243.792	8.451
171916.895	433244.206	7.994
171916.994	433244.676	8.142
171917.056	433245.122	8.005
171917.141	433245.582	8.049
171917.211	433246.033	7.966
171917.299	433246.493	8.035
171917.388	433246.953	8.106
171917.449	433247.400	7.961
171917.543	433247.860	8.076
171914.392	433218.153	30.478
171914.387	433218.384	30.083
171914.692	433219.634	30.829
171914.349	433220.556	26.454
171911.650	433218.080	6.780
171911.718	433218.560	6.637
171912.139	433220.781	6.920
171912.333	433221.848	6.984
171912.460	433222.436	7.189
171912.557	433222.965	7.230
171912.666	433223.514	7.339
171912.797	433224.103	7.583
171913.057	433225.609	7.545
171913.139	433226.101	7.510
171913.235	433226.618	7.563
171913.376	433227.209	7.884
171913.622	433228.670	7.804
171913.732	433229.200	7.949
171913.804	433229.668	7.867
171913.899	433230.170	7.922
171914.011	433230.699	8.094
171914.066	433231.137	7.905
171914.171	433231.652	8.036
171914.237	433232.107	7.919
171914.343	433232.619	8.055
171914.432	433233.106	8.089
171914.514	433233.581	8.076
171914.582	433234.037	7.979
171914.684	433234.537	8.098
171914.756	433234.997	8.025
171914.824	433235.452	7.926
171914.926	433235.949	8.053
171914.999	433236.408	7.988
171915.089	433236.889	8.043
171915.173	433237.360	8.051
171915.287	433237.865	8.277
171915.362	433238.325	8.232
171915.541	433238.896	8.914
171915.677	433239.416	9.306
171917.563	433243.040	20.172
171918.145	433243.882	23.945
171916.413	433244.320	8.238
171916.475	433244.764	8.099
171916.549	433245.217	8.051
171916.638	433245.679	8.125
171916.714	433246.133	8.092
171916.797	433246.590	8.121
171916.871	433247.042	8.073
171916.948	433247.496	8.058
171917.029	433247.951	8.064
171914.522	433224.239	26.839
171914.075	433223.797	23.630
171911.313	433219.182	6.690
171911.469	433219.843	7.044
171911.521	433220.288	6.818
171911.745	433221.416	7.043
171911.851	433221.964	7.123
171911.950	433222.498	7.170
171912.101	433223.130	7.519
171912.161	433223.585	7.347
171912.270	433224.132	7.460
171912.328	433224.582	7.275
171912.538	433225.654	7.469
171912.751	433226.722	7.685
171912.866	433227.269	7.855
171913.100	433228.707	7.689
171913.202	433229.224	7.786
171913.302	433229.738	7.876
171913.410	433230.262	8.017
171913.500	433230.755	8.046
171913.614	433231.284	8.231
171913.659	433231.706	7.977
171913.741	433232.183	7.957
171913.851	433232.702	8.122
171913.935	433233.181	8.127
171914.034	433233.679	8.221
171914.105	433234.139	8.143
171914.185	433234.609	8.117
171914.257	433235.068	8.044
171914.363	433235.572	8.198
171914.442	433236.038	8.169
171914.518	433236.500	8.124
171914.597	433236.966	8.101
171914.685	433237.442	8.139
171914.794	433237.941	8.326
171914.866	433238.396	8.261
171914.976	433238.892	8.454
171915.072	433239.371	8.561
171915.096	433239.774	8.151
171915.210	433240.271	8.391
171915.460	433241.660	8.439
171915.596	433242.556	8.254
171915.727	433243.450	8.029
171915.810	433243.911	8.053
171915.894	433244.372	8.079
171915.985	433244.836	8.158
171916.051	433245.284	8.051
171916.140	433245.745	8.115
171916.232	433246.208	8.211
171916.311	433246.663	8.210
171916.379	433247.111	8.113
171916.470	433247.571	8.206
171916.556	433248.027	8.252
171913.834	433220.209	31.730
171913.303	433221.445	25.233
171913.805	433224.416	25.055
171913.678	433224.412	23.956
171913.486	433224.280	22.496
171912.114	433223.579	11.662
171911.705	433223.445	8.321
171911.627	433223.635	7.354
171911.733	433224.176	7.448
171911.896	433225.161	7.353
171912.325	433227.302	7.804
171912.387	433227.756	7.654
171912.970	433230.804	8.051
171913.055	433231.289	8.054
171913.129	433231.755	7.982
171913.250	433232.290	8.212
171913.306	433232.729	8.030
171913.642	433234.638	8.024
171913.751	433235.146	8.194
171913.831	433235.615	8.172
171913.921	433236.096	8.222
171914.006	433236.568	8.235
171914.124	433237.080	8.475
171914.194	433237.534	8.396
171914.258	433237.979	8.270
171914.394	433238.506	8.646
171914.436	433238.927	8.369
171914.522	433239.395	8.397
171914.578	433239.831	8.213
171914.753	433240.388	8.884
171914.752	433240.768	8.293
171914.841	433241.236	8.351
171915.136	433243.050	8.137
171915.289	433243.961	8.074
171915.381	433244.427	8.160
171915.460	433244.883	8.150
171915.524	433245.329	8.023
171915.619	433245.795	8.136
171915.707	433246.255	8.202
171915.796	433246.714	8.270
171915.869	433247.165	8.213
171915.949	433247.619	8.217
171916.062	433248.086	8.481
171913.167	433221.115	29.119
171913.149	433222.593	26.708
171913.116	433222.776	26.137
171913.056	433222.904	25.421
171912.981	433223.004	24.622
171912.738	433222.740	22.920
171912.637	433222.796	21.962
171912.536	433222.858	20.993
171912.510	433223.084	20.417
171912.499	433223.348	19.924
171912.448	433223.528	19.202
171912.270	433223.451	17.778
171912.202	433223.611	16.951
171912.113	433223.731	15.995
171912.059	433223.926	15.223
171911.918	433223.956	13.957
171911.596	433226.303	7.583
171912.251	433229.842	7.845
171912.361	433230.368	7.995
171912.453	433230.863	8.033
171912.538	433231.346	8.027
171912.613	433231.815	7.965
171912.913	433233.322	8.258
171913.062	433234.248	8.130
171913.147	433234.725	8.142
171913.216	433235.179	8.040
171913.391	433236.136	8.097
171913.492	433236.629	8.217
171913.607	433237.137	8.437
171913.674	433237.586	8.329
171913.754	433238.050	8.311
171913.847	433238.527	8.383
171913.934	433238.998	8.419
171914.032	433239.479	8.536
171914.068	433239.895	8.214
171914.188	433240.396	8.483
171914.252	433240.840	8.363
171914.457	433241.799	8.669
171916.683	433244.757	23.424
171914.737	433243.594	8.348
171914.866	433244.485	8.102
171914.995	433244.975	8.477
171915.124	433245.864	8.226
171915.218	433246.327	8.332
171915.289	433246.777	8.262
171915.382	433247.237	8.363
171915.463	433247.691	8.377
171915.555	433248.148	8.472
171912.463	433221.275	27.461
171912.132	433223.474	21.222
171911.462	433223.552	15.297
171910.314	433222.237	7.373
171910.374	433222.693	7.195
171910.900	433225.385	7.626
171911.464	433228.438	7.830
171911.742	433229.940	7.939
171911.860	433230.478	8.137
171911.929	433230.937	8.032
171912.040	433231.459	8.188
171912.116	433231.927	8.127
171912.376	433233.374	8.160
171912.446	433233.832	8.070
171912.547	433234.331	8.177
171912.617	433234.787	8.082
171912.717	433235.283	8.194
171912.818	433235.778	8.309
171912.890	433236.234	8.232
171912.982	433236.716	8.294
171913.076	433237.198	8.368
171913.139	433237.642	8.230
171913.300	433238.199	8.769
171913.299	433238.570	8.196
171913.420	433239.078	8.467
171913.519	433239.559	8.584
171913.587	433240.007	8.488
171913.839	433241.397	8.538
171916.202	433243.904	25.160
171914.000	433242.313	8.525
171914.141	433243.212	8.374
171916.431	433245.358	24.914
171914.275	433244.106	8.164
171914.384	433244.583	8.378
171914.440	433245.022	8.190
171914.515	433245.475	8.142
171914.608	433245.938	8.235
171914.707	433246.403	8.380
171914.797	433246.862	8.459
171914.879	433247.316	8.471
171914.984	433247.779	8.673
171911.949	433220.805	28.162
171910.869	433220.468	19.330
171911.801	433223.625	22.553
171911.753	433223.800	21.871
171909.822	433222.325	7.416
171909.925	433222.863	7.482
171910.076	433223.831	7.304
171910.267	433224.869	7.363
171910.465	433225.914	7.472
171911.413	433230.977	7.905
171911.525	433231.503	8.071
171911.601	433231.971	8.009
171911.704	433232.479	8.123
171911.777	433232.942	8.048
171911.868	433233.428	8.081
171911.962	433233.920	8.146
171912.069	433234.427	8.291
171912.131	433234.872	8.148
171912.237	433235.374	8.289
171912.314	433235.838	8.249
171912.393	433236.304	8.220
171912.473	433236.769	8.195
171912.573	433237.259	8.308
171912.646	433237.715	8.238
171912.763	433238.221	8.474
171912.871	433238.715	8.654
171912.926	433239.149	8.465
171912.983	433239.586	8.288
171913.073	433240.057	8.339
171913.140	433240.505	8.236
171913.252	433240.996	8.449
171913.354	433241.475	8.596
171913.454	433241.951	8.736
171915.854	433244.411	25.736
171915.691	433244.589	24.052
171913.702	433243.719	8.168
171913.874	433244.641	8.238
171913.956	433245.098	8.248
171914.041	433245.556	8.279
171914.135	433246.019	8.383
171914.223	433246.477	8.439
171914.318	433246.939	8.557
171914.409	433247.396	8.638
171914.497	433247.851	8.702
171911.382	433219.525	29.849
171911.412	433220.337	28.861
171911.269	433223.943	22.073
171909.371	433222.863	7.296
171909.449	433223.351	7.214
171909.658	433224.426	7.370
171909.731	433224.903	7.269
171909.885	433225.526	7.643
171909.987	433226.052	7.718
171910.107	433226.608	7.901
171910.357	433228.074	7.813
171910.535	433228.720	8.361
171910.616	433229.199	8.322
171910.727	433230.074	7.936
171911.127	433232.100	8.288
171911.191	433232.549	8.152
171911.272	433233.022	8.125
171911.361	433233.506	8.148
171911.456	433233.997	8.213
171911.551	433234.487	8.281
171911.631	433234.956	8.255
171911.732	433235.451	8.367
171911.798	433235.900	8.248
171911.906	433236.403	8.415
171912.012	433236.899	8.564
171912.087	433237.357	8.512
171912.147	433237.797	8.355
171912.290	433238.332	8.767
171914.416	433241.073	22.965
171912.523	433239.705	8.670
171912.630	433240.193	8.849
171912.676	433240.618	8.598
171912.711	433241.033	8.262
171914.939	433243.805	23.290
171912.960	433242.418	8.287
171915.127	433244.609	23.677
171913.122	433243.334	8.274
171913.205	433243.793	8.286
171913.276	433244.243	8.211
171913.358	433244.701	8.218
171913.447	433245.162	8.277
171913.527	433245.617	8.269
171913.627	433246.084	8.422
171913.732	433246.551	8.606
171913.840	433247.018	8.824
171913.935	433247.476	8.945
171914.024	433247.930	9.018
171911.182	433223.066	27.141
171911.175	433223.306	26.707
171908.803	433222.484	7.459
171908.877	433222.965	7.357
171908.992	433223.524	7.491
171909.073	433224.016	7.432
171909.368	433225.584	7.573
171909.592	433226.670	7.840
171910.071	433229.211	8.071
171910.161	433229.706	8.092
171910.216	433230.143	7.895
171910.312	433230.645	7.950
171910.420	433231.164	8.084
171910.487	433231.619	7.962
171910.590	433232.128	8.074
171910.688	433232.627	8.150
171910.745	433233.066	7.968
171910.862	433233.591	8.175
171910.959	433234.084	8.250
171911.092	433234.626	8.569
171911.177	433235.100	8.572
171911.231	433235.532	8.374
171911.404	433236.481	8.413
171911.499	433236.965	8.494
171911.949	433237.872	10.986
171911.946	433238.227	10.412
171913.821	433240.730	22.780
171911.887	433238.892	8.877
171911.912	433239.293	8.483
171912.003	433239.765	8.541
171912.072	433240.213	8.445
171912.137	433240.658	8.322
171912.412	433242.067	8.537
171912.507	433242.536	8.631
171912.530	433242.946	8.205
171912.620	433243.411	8.263
171912.705	433243.872	8.295
171912.782	433244.326	8.260
171912.870	433244.787	8.306
171912.966	433245.253	8.425
171913.062	433245.717	8.535
171913.163	433246.183	8.698
171913.262	433246.646	8.844
171913.360	433247.106	8.982
171913.454	433247.563	9.093
171913.562	433248.024	9.316
171909.678	433222.323	19.905
171907.479	433217.913	7.682
171908.035	433221.062	7.631
171908.143	433221.613	7.715
171908.357	433223.042	7.363
171908.572	433224.130	7.551
171908.668	433224.648	7.580
171908.725	433225.094	7.385
171908.819	433225.609	7.410
171909.235	433227.717	7.758
171909.319	433228.206	7.732
171909.529	433229.248	7.935
171909.629	433229.759	8.013
171909.729	433230.269	8.094
171909.817	433230.757	8.101
171909.885	433231.214	7.986
171909.972	433231.699	7.989
171910.095	433232.238	8.226
