172658.075	433335.542	6.711
172658.176	433336.342	6.278
172658.285	433336.844	6.356
172658.612	433338.588	6.227
172658.723	433339.135	6.251
172650.735	433296.763	11.765
172650.795	433297.162	11.629
172650.861	433297.558	11.534
172650.942	433297.938	11.580
172651.022	433298.319	11.618
172651.095	433298.709	11.588
172651.157	433299.114	11.453
172651.223	433299.516	11.349
172651.301	433299.903	11.366
172651.377	433300.294	11.355
172651.436	433300.711	11.179
172651.513	433301.103	11.172
172651.586	433301.502	11.129
172651.638	433301.939	10.871
172651.706	433302.353	10.764
172651.759	433302.796	10.501
172651.837	433303.195	10.496
172651.900	433303.627	10.327
172651.961	433304.066	10.131
172652.031	433304.489	10.025
172652.098	433304.920	9.893
172652.163	433305.361	9.724
172652.244	433305.766	9.733
172652.307	433306.219	9.530
172652.381	433306.648	9.446
172652.435	433307.133	9.132
172652.520	433307.534	9.179
172652.587	433307.993	8.997
172652.673	433308.399	9.039
172652.745	433308.846	8.919
172652.829	433309.260	8.937
172652.898	433309.726	8.765
172652.976	433310.167	8.692
172653.037	433310.671	8.400
172653.104	433311.163	8.169
172653.193	433311.574	8.229
172653.265	433312.055	8.051
172653.338	433312.536	7.887
172653.421	433312.979	7.858
172653.493	433313.478	7.651
172653.567	433313.974	7.467
172653.650	433314.430	7.418
172653.727	433314.924	7.258
172653.799	433315.446	7.026
172653.887	433315.893	7.023
172653.971	433316.364	6.958
172654.037	433316.946	6.584
172654.303	433318.337	6.517
172654.438	433318.495	7.316
172654.492	433319.202	6.660
172654.578	433319.695	6.577
172654.665	433320.198	6.479
172654.771	433320.551	6.763
172654.857	433321.070	6.633
172654.947	433321.557	6.590
172655.040	433322.030	6.586
172655.119	433322.628	6.291
172655.214	433323.096	6.312
172655.312	433323.541	6.390
172655.419	433323.901	6.664
172655.507	433324.455	6.501
172655.613	433324.817	6.769
172655.730	433325.061	7.294
172655.792	433325.937	6.451
172655.882	433326.520	6.257
172655.980	433327.011	6.265
172656.077	433327.520	6.240
172656.184	433327.898	6.488
172656.285	433328.355	6.576
172656.400	433328.600	7.087
172656.493	433329.209	6.877
172656.581	433329.927	6.467
172656.688	433330.316	6.700
172656.790	433330.816	6.723
172656.881	433331.543	6.326
172656.985	433332.052	6.348
172657.088	433332.576	6.347
172657.192	433333.096	6.358
172657.293	433333.690	6.241
172657.399	433334.193	6.294
172657.504	433334.756	6.245
172657.613	433335.179	6.443
172657.722	433335.632	6.591
172657.832	433336.065	6.776
172657.934	433336.894	6.305
172658.042	433337.490	6.233
172658.262	433338.544	6.329
172658.372	433339.187	6.201
172658.484	433339.724	6.246
172658.596	433340.263	6.294
172650.324	433296.820	11.531
172650.413	433297.192	11.652
172650.491	433297.575	11.666
172650.561	433297.967	11.613
172650.644	433298.344	11.680
172650.705	433298.749	11.533
172650.779	433299.138	11.516
172650.843	433299.543	11.392
172650.908	433299.948	11.281
172650.980	433300.345	11.231
172651.059	433300.732	11.251
172651.119	433301.151	11.078
172651.165	433301.597	10.759
172651.239	433301.999	10.718
172651.309	433302.410	10.630
172651.368	433302.843	10.427
172651.433	433303.268	10.285
172651.514	433303.665	10.302
172651.580	433304.092	10.164
172651.637	433304.546	9.912
172651.698	433304.992	9.712
172651.780	433305.394	9.728
172651.836	433305.861	9.455
172651.904	433306.304	9.301
172651.980	433306.727	9.246
172652.056	433307.154	9.185
172652.130	433307.588	9.097
172652.207	433308.016	9.040
172652.276	433308.473	8.879
172652.358	433308.894	8.866
172652.425	433309.364	8.672
172652.509	433309.781	8.683
172652.572	433310.273	8.427
172652.646	433310.734	8.300
172652.731	433311.157	8.309
172652.804	433311.631	8.148
172652.883	433312.085	8.066
172653.029	433313.052	7.730
172653.102	433313.549	7.533
172653.178	433314.037	7.377
172653.258	433314.509	7.281
172653.327	433315.041	7.008
172653.409	433315.517	6.918
172653.506	433315.919	7.048
172653.586	433316.413	6.916
172653.655	433316.978	6.590
172653.826	433317.937	6.455
172653.936	433318.269	6.794
172654.027	433318.725	6.799
172654.105	433319.266	6.582
172654.191	433319.768	6.481
172654.282	433320.238	6.466
172654.391	433320.572	6.797
172654.497	433320.922	7.084
172654.567	433321.571	6.642
172654.647	433322.159	6.362
172654.738	433322.653	6.315
172654.833	433323.121	6.336
172654.931	433323.569	6.406
172655.039	433323.909	6.725
172655.132	433324.418	6.662
172655.230	433324.862	6.749
172655.351	433325.056	7.382
172655.415	433325.919	6.567
172655.502	433326.531	6.309
172655.595	433327.095	6.164
172655.695	433327.561	6.229
172655.799	433327.988	6.378
172655.902	433328.419	6.521
172655.997	433328.992	6.380
172656.093	433329.555	6.270
172656.192	433330.106	6.190
172656.300	433330.474	6.468
172656.413	433330.755	6.907
172656.507	433331.439	6.589
172656.605	433332.056	6.408
172656.706	433332.627	6.319
172656.811	433333.128	6.365
172656.917	433333.600	6.467
172657.021	433334.161	6.414
172657.125	433334.743	6.331
172657.236	433335.101	6.641
172657.348	433335.370	7.099
172657.454	433335.954	7.025
172657.553	433336.942	6.287
172657.772	433337.999	6.368
172657.882	433338.534	6.405
172657.991	433339.267	6.133
172658.103	433339.741	6.279
172658.215	433340.404	6.135
172658.329	433340.878	6.288
172649.964	433296.845	11.594
172650.046	433297.223	11.655
172650.120	433297.610	11.640
172650.187	433298.005	11.557
172650.267	433298.387	11.585
172650.346	433298.770	11.615
172650.406	433299.177	11.460
172650.474	433299.577	11.376
172650.539	433299.982	11.265
172650.614	433300.375	11.244
172650.686	433300.773	11.196
172650.741	433301.200	10.974
172650.794	433301.636	10.714
172650.863	433302.046	10.624
172650.927	433302.468	10.477
172650.989	433302.898	10.304
172651.061	433303.310	10.230
172651.124	433303.743	10.061
172651.203	433304.145	10.061
172651.273	433304.569	9.956
172651.335	433305.015	9.755
172651.393	433305.473	9.508
172651.521	433306.377	9.120
172651.610	433306.767	9.212
172651.682	433307.205	9.102
172651.759	433307.631	9.053
172651.838	433308.055	9.015
172651.918	433308.477	8.990
172651.982	433308.955	8.755
172652.063	433309.380	8.735
172652.132	433309.846	8.563
172652.198	433310.334	8.326
172652.271	433310.797	8.189
172652.350	433311.246	8.112
172652.424	433311.716	7.971
172652.498	433312.190	7.822
172652.578	433312.646	7.744
172652.659	433313.101	7.678
172652.734	433313.587	7.519
172652.800	433314.120	7.220
172652.887	433314.565	7.210
172652.958	433315.085	6.975
172653.046	433315.532	6.970
172653.135	433315.977	6.978
172653.214	433316.477	6.827
172653.449	433318.036	6.273
172653.540	433318.491	6.285
172653.639	433318.900	6.421
172653.724	433319.401	6.317
172653.916	433320.266	6.481
172654.010	433320.718	6.516
172654.108	433321.138	6.636
172654.194	433321.663	6.501
172654.286	433322.144	6.479
172654.375	433322.653	6.395
172654.472	433323.105	6.453
172654.565	433323.597	6.422
172654.674	433323.932	6.750
172654.782	433324.270	7.070
172654.871	433324.819	6.919
172654.952	433325.467	6.563
172655.040	433326.056	6.347
172655.143	433326.477	6.497
172655.239	433326.984	6.468
172655.335	433327.506	6.416
172655.426	433328.112	6.197
172655.523	433328.641	6.143
172655.629	433329.051	6.333
172655.724	433329.641	6.170
172655.834	433329.986	6.490
172655.949	433330.213	7.033
172656.045	433330.819	6.853
172656.149	433331.281	6.949
172656.241	433332.016	6.548
172656.339	433332.678	6.292
172656.443	433333.184	6.329
172656.551	433333.621	6.492
172656.653	433334.222	6.370
172656.758	433334.790	6.313
172656.865	433335.299	6.364
172656.974	433335.737	6.538
172657.078	433336.410	6.320
172657.294	433337.611	6.155
172657.514	433338.724	6.159
172657.849	433340.392	6.210
172657.963	433340.833	6.413
172649.531	433296.498	11.607
172649.600	433296.889	11.547
172649.678	433297.271	11.569
172649.760	433297.650	11.623
172649.827	433298.046	11.540
172649.898	433298.438	11.490
172649.974	433298.825	11.490
172650.038	433299.228	11.375
172650.117	433299.612	11.399
172650.188	433300.010	11.337
172650.249	433300.424	11.179
172650.314	433300.833	11.062
172650.378	433301.246	10.928
172650.430	433301.684	10.659
172650.493	433302.105	10.510
172650.561	433302.521	10.403
172650.629	433302.940	10.288
172650.684	433303.386	10.039
172650.759	433303.797	9.988
172650.841	433304.191	10.027
172650.901	433304.639	9.804
172650.971	433305.066	9.701
172651.034	433305.514	9.503
172651.107	433305.941	9.415
172651.188	433306.350	9.417
172651.248	433306.815	9.178
172651.331	433307.224	9.195
172651.392	433307.696	8.952
172651.470	433308.122	8.905
172651.553	433308.538	8.909
172651.617	433309.014	8.683
172651.692	433309.462	8.577
172651.760	433309.935	8.386
172651.837	433310.383	8.294
172651.912	433310.839	8.186
172651.985	433311.310	8.032
172652.064	433311.760	7.958
172652.133	433312.258	7.733
172652.214	433312.709	7.674
172652.290	433313.187	7.532
172652.361	433313.692	7.316
172652.445	433314.144	7.275
172652.525	433314.623	7.160
172652.602	433315.118	7.001
172652.692	433315.549	7.044
172652.768	433316.061	6.853
172652.845	433316.579	6.656
172653.364	433319.451	6.298
172653.462	433319.868	6.421
172653.559	433320.295	6.518
172653.654	433320.740	6.571
172653.741	433321.249	6.469
172653.838	433321.683	6.556
172653.926	433322.191	6.469
172654.015	433322.712	6.359
172654.116	433323.117	6.527
172654.210	433323.601	6.514
172654.307	433324.053	6.577
172654.398	433324.583	6.469
172654.547	433324.470	7.784
172654.588	433325.565	6.446
172654.686	433326.041	6.475
172654.805	433326.244	7.085
172654.886	433326.946	6.641
172654.984	433327.432	6.660
172655.087	433327.856	6.808
172655.170	433328.592	6.333
172655.366	433329.676	6.190
172655.475	433330.017	6.519
172655.590	433330.262	7.027
172655.694	433330.690	7.182
172655.775	433331.647	6.353
172655.889	433331.907	6.832
172655.977	433332.780	6.190
172656.083	433333.253	6.289
172656.189	433333.749	6.347
172656.292	433334.341	6.243
172656.398	433334.844	6.299
172656.505	433335.379	6.307
172656.612	433335.904	6.335
172656.722	433336.317	6.556
172656.826	433337.065	6.223
172657.155	433338.690	6.291
172657.603	433340.971	6.276
172649.151	433296.528	11.578
172649.228	433296.912	11.588
172649.307	433297.293	11.620
172649.379	433297.682	11.585
172649.458	433298.065	11.611
172649.521	433298.465	11.491
172649.583	433298.870	11.354
172649.661	433299.256	11.366
172649.737	433299.645	11.361
172649.793	433300.063	11.161
172649.858	433300.472	11.043
172649.914	433300.897	10.828
172649.990	433301.293	10.812
172650.047	433301.723	10.592
172650.116	433302.134	10.502
172650.180	433302.557	10.356
172650.238	433302.996	10.133
172650.314	433303.402	10.099
172650.385	433303.819	10.019
172650.455	433304.242	9.911
172650.518	433304.683	9.728
172650.588	433305.111	9.615
172650.651	433305.560	9.418
172650.718	433306.003	9.262
172650.793	433306.428	9.196
172650.874	433306.838	9.200
172650.948	433307.272	9.109
172651.009	433307.744	8.866
172651.101	433308.131	8.984
172651.171	433308.585	8.834
172651.236	433309.059	8.618
172651.317	433309.487	8.589
172651.388	433309.952	8.427
172651.460	433310.414	8.287
172651.543	433310.845	8.265
172651.616	433311.313	8.121
172651.684	433311.807	7.893
172651.754	433312.299	7.688
172651.840	433312.733	7.686
172651.913	433313.224	7.506
172651.993	433313.689	7.414
172652.073	433314.160	7.316
172652.136	433314.718	6.954
172652.222	433315.168	6.938
172652.309	433315.621	6.914
172652.388	433316.118	6.771
172652.637	433317.579	6.471
172652.716	433318.104	6.284
172652.893	433319.052	6.208
172652.989	433319.486	6.282
172653.087	433319.903	6.405
172653.193	433320.256	6.688
172653.297	433320.630	6.917
172653.369	433321.250	6.537
172653.463	433321.711	6.559
172653.554	433322.199	6.519
172653.645	433322.701	6.454
172653.743	433323.137	6.548
172653.838	433323.600	6.581
172653.966	433323.737	7.357
172654.053	433324.288	7.193
172654.116	433325.126	6.405
172654.220	433325.517	6.613
172654.330	433325.844	6.958
172654.433	433326.241	7.152
172654.533	433326.685	7.248
172654.639	433327.045	7.518
172654.727	433327.668	7.252
172654.800	433328.553	6.471
172654.901	433329.033	6.518
172654.993	433329.681	6.238
172655.108	433329.911	6.781
172655.215	433330.289	7.031
172655.337	433330.352	7.875
172655.408	433331.509	6.665
172655.522	433331.754	7.170
172655.606	433332.745	6.308
172655.710	433333.246	6.354
172655.814	433333.792	6.325
172655.919	433334.339	6.300
172656.024	433334.892	6.269
172656.132	433335.356	6.398
172656.242	433335.758	6.633
172656.350	433336.252	6.715
172657.229	433340.977	6.315
172648.800	433296.538	11.658
172648.869	433296.928	11.599
172648.946	433297.312	11.611
172649.011	433297.709	11.506
172649.089	433298.093	11.523
172649.155	433298.491	11.422
172649.241	433298.866	11.522
172649.293	433299.286	11.278
172649.364	433299.682	11.224
172649.443	433300.068	11.251
172649.496	433300.495	11.004
172649.549	433300.925	10.759
172649.617	433301.334	10.665
172649.673	433301.767	10.435
172649.738	433302.187	10.296
172649.824	433302.571	10.376
172649.884	433303.004	10.183
172649.961	433303.408	10.158
172650.022	433303.847	9.960
172650.087	433304.281	9.804
172650.153	433304.716	9.650
172650.220	433305.153	9.499
172650.289	433305.588	9.369
172650.357	433306.027	9.232
172650.432	433306.454	9.157
172650.511	433306.871	9.132
172650.578	433307.326	8.954
172650.665	433307.724	9.021
172650.736	433308.172	8.888
172650.802	433308.639	8.689
172650.878	433309.078	8.608
172650.949	433309.542	8.444
172651.028	433309.979	8.388
172651.096	433310.457	8.190
172651.174	433310.908	8.101
172651.248	433311.373	7.967
172651.323	433311.841	7.836
172651.393	433312.339	7.611
172651.472	433312.799	7.524
172651.553	433313.258	7.448
172651.631	433313.730	7.338
172651.704	433314.237	7.125
172651.781	433314.731	6.963
172651.873	433315.153	7.032
172651.954	433315.632	6.933
172652.023	433316.186	6.619
172652.283	433317.589	6.490
172652.363	433318.106	6.321
172652.462	433318.509	6.473
172652.541	433319.047	6.264
172652.634	433319.495	6.300
172652.732	433319.912	6.423
172652.835	433320.298	6.622
172652.938	433320.669	6.861
172653.015	433321.263	6.546
172653.110	433321.712	6.595
172653.198	433322.224	6.500
172653.297	433322.647	6.619
172653.394	433323.094	6.685
172653.508	433323.373	7.139
172653.626	433323.604	7.694
172653.703	433324.251	7.311
172653.761	433325.155	6.376
172653.869	433325.496	6.693
172653.971	433325.911	6.849
172654.070	433326.373	6.907
172654.176	433326.740	7.166
172654.247	433327.598	6.411
172654.349	433328.046	6.515
172654.466	433328.262	7.087
172654.538	433329.197	6.222
172654.640	433329.670	6.291
172654.747	433330.060	6.522
172654.858	433330.375	6.897
172654.954	433330.996	6.690
172655.058	433331.450	6.805
172655.179	433331.503	7.660
172655.257	433332.646	6.517
172655.357	433333.248	6.379
172655.461	433333.788	6.358
172655.565	433334.369	6.272
172655.671	433334.898	6.285
172655.780	433335.331	6.466
172655.891	433335.673	6.803
172656.001	433336.063	7.057
172656.099	433337.150	6.157
172656.428	433338.781	6.218
172656.764	433340.464	6.244
172648.406	433296.559	11.580
172648.487	433296.938	11.629
172648.586	433297.300	11.839
172648.633	433297.714	11.576
172648.698	433298.113	11.464
172648.769	433298.506	11.413
172648.862	433298.872	11.572
172648.914	433299.291	11.338
172648.976	433299.699	11.195
172649.051	433300.092	11.172
172649.091	433300.538	10.807
172649.161	433300.942	10.730
172649.223	433301.362	10.567
172649.293	433301.771	10.485
172649.350	433302.207	10.257
172649.422	433302.617	10.189
172649.492	433303.033	10.094
172649.555	433303.465	9.923
172649.631	433303.875	9.882
172649.698	433304.305	9.745
172649.765	433304.738	9.601
172649.829	433305.182	9.420
172649.895	433305.623	9.262
172649.978	433306.028	9.281
172650.052	433306.455	9.205
172650.122	433306.897	9.073
172650.200	433307.322	9.021
172650.273	433307.760	8.924
172650.347	433308.201	8.819
172650.412	433308.673	8.601
172650.491	433309.105	8.550
172650.560	433309.572	8.375
172650.634	433310.027	8.252
172650.713	433310.472	8.180
172650.787	433310.933	8.052
172650.939	433311.862	7.806
172651.020	433312.309	7.753
172651.086	433312.826	7.474
172651.163	433313.302	7.342
172651.243	433313.772	7.241
172651.312	433314.295	6.981
172651.398	433314.743	6.962
172651.485	433315.193	6.945
172651.558	433315.717	6.713
172651.898	433317.618	6.441
172651.991	433318.060	6.478
172652.158	433319.073	6.224
172652.256	433319.486	6.354
172652.351	433319.924	6.421
172652.454	433320.306	6.629
172652.548	433320.755	6.673
172652.643	433321.195	6.738
172652.723	433321.769	6.482
172652.813	433322.274	6.405
172652.909	433322.729	6.450
172653.014	433323.098	6.701
172653.129	433323.365	7.182
172653.230	433323.765	7.353
172653.297	433324.536	6.696
172653.386	433325.100	6.519
172653.495	433325.433	6.854
172653.589	433325.936	6.818
172653.703	433326.205	7.283
172653.820	433326.406	7.884
172653.921	433326.824	8.027
172653.971	433328.013	6.601
172654.079	433328.371	6.887
172654.260	433329.682	6.287
172654.362	433330.164	6.340
172654.474	433330.465	6.742
172654.581	433330.839	7.004
172654.671	433331.612	6.519
172654.777	433332.048	6.672
172654.880	433332.561	6.688
172654.979	433333.220	6.445
172655.083	433333.750	6.441
172655.187	433334.336	6.346
172655.291	433334.919	6.263
172655.400	433335.358	6.435
172655.513	433335.628	6.894
172655.617	433336.280	6.709
172655.722	433337.016	6.392
172655.832	433337.487	6.525
172655.938	433338.262	6.167
172656.162	433339.083	6.643
172656.385	433340.421	6.323
172656.498	433341.048	6.241
172648.040	433296.572	11.560
172648.119	433296.954	11.590
172648.184	433297.350	11.483
172648.255	433297.741	11.438
172648.330	433298.129	11.425
172648.414	433298.506	11.502
172648.476	433298.911	11.364
172648.544	433299.310	11.278
172648.608	433299.716	11.155
172648.671	433300.127	11.014
172648.722	433300.558	10.748
172648.791	433300.964	10.661
172648.856	433301.380	10.527
172648.923	433301.794	10.415
172648.984	433302.223	10.227
172649.055	433302.635	10.150
172649.117	433303.067	9.966
172649.193	433303.475	9.932
172649.259	433303.903	9.793
172649.316	433304.357	9.539
172649.391	433304.773	9.483
172649.456	433305.215	9.312
172649.526	433305.649	9.192
172649.605	433306.065	9.163
172649.678	433306.497	9.068
172649.746	433306.946	8.907
172649.830	433307.351	8.943
172649.903	433307.794	8.826
172649.972	433308.250	8.663
172650.043	433308.703	8.522
172650.120	433309.144	8.442
172650.183	433309.631	8.191
172650.264	433310.064	8.154
172650.343	433310.506	8.092
172650.422	433310.955	8.012
172650.500	433311.407	7.926
172650.566	433311.914	7.660
172650.646	433312.367	7.589
172650.726	433312.825	7.511
172650.797	433313.331	7.283
172650.865	433313.854	7.010
172650.945	433314.326	6.912
172651.036	433314.754	6.960
172651.120	433315.219	6.895
172651.195	433315.733	6.692
172651.275	433316.228	6.558
172651.361	433316.695	6.512
172651.440	433317.212	6.328
172651.531	433317.662	6.344
172651.613	433318.166	6.213
172651.706	433318.614	6.244
172651.795	433319.090	6.203
172651.896	433319.479	6.398
172651.996	433319.884	6.548
172652.086	433320.357	6.524
172652.198	433320.669	6.911
172652.288	433321.146	6.883
172652.365	433321.750	6.553
172652.450	433322.292	6.383
172652.551	433322.700	6.539
172652.648	433323.148	6.606
172652.754	433323.503	6.886
172652.831	433324.167	6.463
172652.921	433324.702	6.347
172653.025	433325.094	6.552
172653.127	433325.510	6.705
172653.233	433325.879	6.960
172653.318	433326.515	6.647
172653.419	433326.952	6.763
172653.513	433327.502	6.647
172653.620	433327.865	6.921
172653.708	433328.538	6.570
172653.795	433329.251	6.152
172653.906	433329.560	6.541
172654.005	433330.087	6.505
172654.109	433330.531	6.632
172654.228	433330.672	7.336
172654.319	433331.401	6.929
172654.412	433332.150	6.501
172654.633	433332.784	7.244
172654.727	433333.619	6.690
172654.826	433334.332	6.367
172654.929	433334.945	6.233
172655.036	433335.459	6.275
172655.142	433336.045	6.200
172655.250	433336.577	6.223
172655.361	433337.017	6.404
172655.469	433337.622	6.315
172655.688	433338.824	6.174
172656.024	433340.426	6.326
172656.137	433340.883	6.503
172647.654	433296.593	11.511
172647.725	433296.982	11.461
172647.808	433297.361	11.523
172647.876	433297.755	11.448
172647.953	433298.141	11.454
172648.017	433298.542	11.334
172648.085	433298.940	11.256
172648.155	433299.337	11.189
172648.216	433299.749	11.027
172648.283	433300.155	10.925
172648.334	433300.586	10.659
172648.400	433300.998	10.543
172648.470	433301.406	10.458
172648.538	433301.819	10.356
172648.602	433302.241	10.207
172648.670	433302.660	10.090
172648.737	433303.082	9.966
172648.800	433303.517	9.785
172648.872	433303.935	9.705
172648.940	433304.364	9.578
172649.011	433304.790	9.472
172649.074	433305.238	9.272
172649.151	433305.656	9.231
172649.232	433306.065	9.230
172649.292	433306.529	8.989
172649.372	433306.947	8.964
172649.450	433307.371	8.922
172649.516	433307.832	8.728
172649.592	433308.267	8.652
172649.664	433308.718	8.521
172649.739	433309.166	8.412
172649.814	433309.613	8.315
172649.888	433310.071	8.182
172649.961	433310.534	8.042
172650.041	433310.978	7.982
172650.113	433311.455	7.810
172650.185	433311.937	7.630
172650.254	433312.439	7.396
172650.339	433312.880	7.376
172650.420	433313.336	7.310
172650.492	433313.845	7.085
172650.562	433314.365	6.835
172650.665	433314.735	7.062
172650.738	433315.253	6.837
172650.809	433315.789	6.568
172650.894	433316.262	6.500
172650.995	433316.640	6.709
172651.082	433317.104	6.675
172651.168	433317.582	6.606
172651.516	433319.511	6.349
172651.616	433319.912	6.509
172651.737	433320.152	7.080
172651.806	433320.791	6.640
172651.919	433321.085	7.066
172652.002	433321.635	6.865
172652.072	433322.310	6.372
172652.166	433322.781	6.381
172652.257	433323.284	6.319
172652.357	433323.709	6.444
172652.454	433324.166	6.498
172652.545	433324.696	6.390
172652.657	433325.001	6.786
172652.763	433325.362	7.057
172652.869	433325.712	7.347
172652.985	433325.945	7.883
172653.078	433326.457	7.824
172653.166	433327.072	7.562
172653.228	433328.095	6.478
172653.331	433328.534	6.603
172653.425	433329.135	6.408
172653.529	433329.566	6.556
172653.625	433330.143	6.423
172653.734	433330.490	6.736
172653.847	433330.766	7.183
172653.955	433331.113	7.490
172654.039	433332.059	6.692
172654.152	433332.312	7.180
172654.239	433333.274	6.385
172654.348	433333.667	6.626
172654.454	433334.163	6.686
172654.552	433334.944	6.256
172654.659	433335.483	6.255
172654.766	433336.024	6.257
172654.874	433336.535	6.315
172654.986	433336.860	6.684
172655.096	433337.313	6.841
172655.210	433337.398	7.596
172655.422	433339.338	6.271
172655.534	433339.800	6.434
172655.647	433340.451	6.306
172655.760	433341.040	6.282
172647.292	433296.607	11.511
172647.368	433296.992	11.511
172647.434	433297.387	11.414
172647.501	433297.783	11.329
172647.586	433298.160	11.415
172647.645	433298.567	11.245
172647.722	433298.955	11.246
172647.785	433299.362	11.110
172647.836	433299.788	10.849
172647.895	433300.206	10.669
172647.967	433300.608	10.610
172648.032	433301.021	10.483
172648.090	433301.450	10.271
172648.154	433301.872	10.120
172648.237	433302.262	10.168
172648.297	433302.695	9.972
172648.369	433303.109	9.897
172648.436	433303.536	9.755
172648.498	433303.975	9.567
172648.577	433304.382	9.557
172648.635	433304.838	9.306
172648.707	433305.264	9.213
172648.789	433305.669	9.230
172648.865	433306.092	9.171
172648.938	433306.526	9.066
172649.010	433306.961	8.963
172649.083	433307.400	8.854
172649.152	433307.853	8.698
172649.234	433308.271	8.690
172649.296	433308.754	8.433
172649.366	433309.219	8.256
172649.438	433309.679	8.111
172649.520	433310.111	8.085
172649.596	433310.564	7.984
172649.671	433311.029	7.847
172649.762	433311.433	7.933
172649.819	433311.973	7.552
172649.904	433312.410	7.538
172649.980	433312.888	7.393
172650.052	433313.388	7.185
172650.125	433313.891	6.979
172650.211	433314.336	6.966
172650.293	433314.807	6.881
172650.356	433315.382	6.485
172650.536	433316.262	6.536
172650.638	433316.637	6.754
172650.736	433317.038	6.899
172650.812	433317.572	6.670
172651.068	433319.041	6.405
172651.168	433319.446	6.553
172651.272	433319.810	6.805
172651.354	433320.348	6.613
172651.443	433320.834	6.564
172651.544	433321.234	6.731
172651.625	433321.804	6.484
172651.731	433322.162	6.757
172651.801	433322.849	6.250
172651.893	433323.353	6.188
172651.996	433323.742	6.396
172652.090	433324.235	6.367
172652.186	433324.713	6.378
172652.288	433325.130	6.529
172652.398	433325.450	6.891
172652.500	433325.860	7.055
172652.606	433326.214	7.338
172652.703	433326.699	7.344
172652.818	433326.924	7.892
172652.918	433327.355	8.010
172653.006	433328.000	7.701
172653.065	433329.166	6.370
172653.163	433329.706	6.304
172653.269	433330.123	6.482
172653.368	433330.665	6.423
172653.475	433331.073	6.623
172653.588	433331.315	7.135
172653.695	433331.705	7.365
172653.796	433332.262	7.291
172653.897	433332.831	7.203
172653.995	433333.514	6.919
172654.101	433333.968	7.048
172654.204	433334.593	6.885
172654.302	433335.451	6.329
172654.407	433336.067	6.202
172654.516	433336.553	6.303
172654.626	433337.018	6.441
172654.736	433337.446	6.641
172655.177	433339.753	6.523
172646.906	433296.611	11.530
172646.974	433297.003	11.461
172647.055	433297.383	11.503
172647.126	433297.775	11.448
172647.196	433298.168	11.394
172647.257	433298.573	11.245
172647.329	433298.967	11.196
172647.389	433299.378	11.031
172647.424	433299.827	10.612
172647.501	433300.220	10.609
172647.568	433300.629	10.500
172647.644	433301.028	10.472
172647.709	433301.445	10.339
172647.774	433301.864	10.197
172647.838	433302.287	10.048
172647.913	433302.693	10.010
172647.974	433303.130	9.807
172648.039	433303.560	9.656
172648.109	433303.984	9.546
172648.178	433304.414	9.419
172648.245	433304.849	9.275
172648.325	433305.257	9.270
172648.396	433305.691	9.150
172648.468	433306.124	9.042
172648.547	433306.542	9.015
172648.622	433306.971	8.942
172648.692	433307.419	8.793
172648.763	433307.867	8.657
172648.833	433308.322	8.503
172648.908	433308.766	8.401
172648.970	433309.256	8.128
172649.050	433309.689	8.089
172649.132	433310.120	8.062
172649.206	433310.584	7.923
172649.281	433311.047	7.795
172649.362	433311.489	7.747
172649.437	433311.961	7.606
172649.507	433312.460	7.382
172649.582	433312.944	7.218
172649.662	433313.410	7.123
172649.734	433313.919	6.899
172649.834	433314.298	7.095
172649.905	433314.820	6.848
172649.984	433315.311	6.708
172650.248	433316.668	6.674
172650.345	433317.075	6.800
172650.456	433317.398	7.163
172650.599	433318.542	6.516
172650.680	433319.066	6.343
172650.775	433319.507	6.398
172650.883	433319.847	6.716
172650.972	433320.327	6.673
172651.080	433320.664	6.994
172651.162	433321.215	6.781
172651.266	433321.580	7.032
172651.330	433322.312	6.401
172651.419	433322.826	6.308
172651.518	433323.262	6.402
172651.609	433323.774	6.325
172651.712	433324.171	6.516
172651.807	433324.656	6.509
172651.901	433325.167	6.450
172652.000	433325.617	6.530
172652.112	433325.910	6.948
172652.215	433326.316	7.123
172652.318	433326.708	7.328
172652.419	433327.137	7.453
172652.516	433327.637	7.438
172652.634	433327.813	8.079
172652.680	433329.197	6.309
172652.785	433329.601	6.510
172652.881	433330.201	6.332
172652.990	433330.554	6.636
172653.090	433331.096	6.580
172653.190	433331.668	6.474
172653.306	433331.842	7.111
172653.423	433331.968	7.826
172653.531	433332.296	8.165
172653.619	433333.283	7.329
172653.814	433334.841	6.452
172653.919	433335.445	6.337
172654.025	433336.056	6.219
172654.133	433336.582	6.251
172654.242	433337.120	6.269
172654.352	433337.596	6.393
172654.460	433338.292	6.162
172654.571	433338.812	6.225
172654.683	433339.279	6.376
172654.795	433339.649	6.682
172654.907	433340.229	6.661
172646.530	433296.606	11.500
172646.596	433297.000	11.410
172646.676	433297.382	11.442
172646.748	433297.773	11.396
172646.820	433298.165	11.353
172646.870	433298.583	11.105
172646.933	433298.989	10.967
172647.006	433299.385	10.920
172647.060	433299.807	10.698
172647.128	433300.213	10.597
172647.195	433300.623	10.488
172647.255	433301.046	10.302
172647.328	433301.451	10.247
172647.407	433301.847	10.253
172647.462	433302.286	10.006
172647.532	433302.702	9.908
172647.596	433303.132	9.744
172647.662	433303.563	9.593
172647.731	433303.989	9.473
172647.800	433304.419	9.346
172647.867	433304.856	9.192
172647.949	433305.259	9.216
172648.021	433305.691	9.106
172648.088	433306.137	8.940
172648.164	433306.561	8.884
172648.242	433306.986	8.829
172648.307	433307.447	8.632
172648.378	433307.898	8.486
172648.459	433308.320	8.469
172648.532	433308.769	8.347
172648.604	433309.227	8.199
172648.681	433309.673	8.112
172648.755	433310.132	7.979
172648.828	433310.598	7.829
172648.903	433311.062	7.702
172648.983	433311.510	7.635
172649.056	433311.993	7.455
172649.129	433312.478	7.278
172649.208	433312.946	7.172
172649.275	433313.473	6.877
172649.364	433313.904	6.910
172649.460	433314.304	7.040
172649.538	433314.792	6.896
172649.779	433316.263	6.504
172649.878	433316.655	6.674
172649.978	433317.042	6.857
172650.069	433317.489	6.871
172650.172	433317.858	7.105
172650.225	433318.556	6.441
172650.309	433319.059	6.324
172650.402	433319.511	6.350
172650.501	433319.924	6.482
172650.597	433320.354	6.569
172650.686	433320.843	6.510
172650.791	433321.206	6.770
172650.870	433321.798	6.467
172650.953	433322.360	6.251
172651.047	433322.839	6.241
172651.158	433323.150	6.629
172651.267	433323.481	6.964
172651.372	433323.847	7.217
172651.437	433324.650	6.487
172651.532	433325.140	6.473
172651.631	433325.598	6.535
172651.729	433326.061	6.591
172651.834	433326.447	6.812
172651.937	433326.857	6.981
172652.051	433327.115	7.467
172652.158	433327.451	7.783
172652.246	433328.097	7.474
172652.334	433328.769	7.125
172652.417	433329.563	6.549
172652.518	433330.076	6.540
172652.633	433330.289	7.109
172652.740	433330.656	7.378
172652.827	433331.493	6.768
172652.938	433331.795	7.166
172653.044	433332.232	7.311
172653.166	433332.150	8.395
172653.263	433332.847	8.071
172653.340	433334.298	6.432
172653.443	433334.925	6.270
172653.554	433335.273	6.597
172653.664	433335.660	6.857
172653.765	433336.516	6.328
172653.872	433337.135	6.208
172653.982	433337.653	6.264
172654.203	433338.691	6.385
172654.314	433339.195	6.476
172654.427	433339.586	6.748
172654.539	433339.666	7.500
172646.136	433296.610	11.429
172646.208	433296.999	11.389
172646.290	433297.379	11.440
172646.359	433297.773	11.365
172646.433	433298.163	11.341
172646.485	433298.579	11.102
172646.547	433298.986	10.964
172646.595	433299.415	10.671
172646.661	433299.822	10.557
172646.739	433300.214	10.564
172646.798	433300.637	10.367
172646.872	433301.038	10.329
172646.927	433301.472	10.087
172647.002	433301.877	10.043
172647.082	433302.274	10.051
172647.147	433302.699	9.905
172647.208	433303.134	9.711
172647.280	433303.551	9.628
172647.347	433303.983	9.479
172647.410	433304.424	9.293
172647.484	433304.846	9.217
172647.562	433305.261	9.182
172647.633	433305.693	9.072
172647.714	433306.103	9.072
172647.787	433306.538	8.966
172647.855	433306.987	8.805
172647.928	433307.427	8.695
172648.005	433307.859	8.626
172648.070	433308.327	8.415
172648.138	433308.796	8.215
172648.222	433309.216	8.222
172648.296	433309.668	8.106
172648.376	433310.107	8.050
172648.446	433310.583	7.861
172648.518	433311.060	7.686
172648.596	433311.516	7.590
172648.670	433311.994	7.429
172648.745	433312.474	7.272
172648.817	433312.973	7.060
172648.890	433313.471	6.860
172648.991	433313.848	7.064
172649.080	433314.281	7.089
172649.161	433314.753	6.993
172649.305	433315.814	6.478
172649.390	433316.283	6.420
172649.481	433316.725	6.449
172649.580	433317.126	6.594
172649.671	433317.568	6.628
172649.743	433318.139	6.308
172649.850	433318.489	6.600
172649.937	433318.977	6.521
172650.020	433319.492	6.378
172650.113	433319.947	6.398
172650.206	433320.407	6.411
172650.306	433320.811	6.566
172650.394	433321.316	6.473
172650.483	433321.819	6.392
172650.671	433322.764	6.396
172650.769	433323.200	6.490
172650.883	433323.480	6.944
172650.967	433324.063	6.704
172651.051	433324.677	6.403
172651.149	433325.131	6.471
172651.244	433325.631	6.442
172651.342	433326.114	6.453
172651.449	433326.467	6.746
172651.548	433326.930	6.807
172651.656	433327.284	7.095
172651.757	433327.723	7.206
172651.836	433328.527	6.584
172651.942	433328.916	6.809
172652.043	433329.395	6.858
172652.131	433330.149	6.376
172652.239	433330.515	6.653
172652.333	433331.193	6.340
172652.439	433331.625	6.499
172652.545	433332.065	6.643
172652.653	433332.448	6.894
172652.755	433333.013	6.816
172652.880	433332.847	8.049
172652.967	433333.913	7.087
172653.090	433333.759	8.276
172653.171	433335.268	6.583
172653.278	433335.812	6.575
172653.384	433336.408	6.485
172653.600	433337.616	6.300
172653.820	433338.765	6.242
172653.931	433339.381	6.156
172654.043	433339.827	6.344
172654.157	433339.867	7.165
172645.757	433296.621	11.329
172645.834	433297.005	11.338
172645.908	433297.394	11.310
172645.979	433297.787	11.255
172646.056	433298.174	11.261
172646.103	433298.596	10.972
172646.168	433299.001	10.854
172646.226	433299.416	10.669
172646.294	433299.822	10.566
172646.349	433300.248	10.336
172646.431	433300.637	10.375
172646.488	433301.065	10.159
172646.563	433301.467	10.124
172646.626	433301.891	9.962
172646.693	433302.312	9.833
172646.762	433302.731	9.726
172646.842	433303.131	9.728
172646.897	433303.583	9.459
172646.962	433304.020	9.290
172647.041	433304.427	9.280
172647.116	433304.847	9.214
172647.190	433305.272	9.130
172647.265	433305.696	9.059
172647.336	433306.132	8.942
172647.412	433306.558	8.875
172647.486	433306.992	8.782
172647.552	433307.450	8.594
172647.633	433307.871	8.574
172647.694	433308.356	8.294
172647.760	433308.831	8.076
172647.850	433309.231	8.160
172647.932	433309.659	8.140
172648.000	433310.138	7.929
172648.068	433310.626	7.703
172648.153	433311.052	7.710
172648.219	433311.555	7.450
172648.299	433312.011	7.367
172648.376	433312.482	7.238
172648.451	433312.967	7.073
172648.528	433313.448	6.931
172648.610	433313.914	6.849
172648.701	433314.335	6.912
172648.937	433315.817	6.463
172649.037	433316.206	6.641
172649.143	433316.558	6.924
172649.240	433316.964	7.049
172649.325	433317.440	6.979
172649.393	433318.036	6.583
172649.497	433318.399	6.837
172649.565	433319.012	6.420
172649.652	433319.502	6.343
172649.748	433319.940	6.410
172649.835	433320.443	6.311
172649.929	433320.893	6.354
172650.030	433321.294	6.521
172650.111	433321.872	6.255
172650.291	433322.888	6.094
172650.398	433323.243	6.381
172650.509	433323.556	6.762
172650.599	433324.091	6.631
172650.701	433324.494	6.806
172650.796	433324.974	6.809
172650.881	433325.593	6.516
172650.974	433326.131	6.408
172651.074	433326.590	6.475
172651.171	433327.089	6.464
172651.274	433327.518	6.600
172651.365	433328.123	6.380
172651.478	433328.398	6.835
172651.566	433329.096	6.442
172651.663	433329.653	6.340
172651.780	433329.846	6.953
172651.887	433330.224	7.202
172651.970	433331.132	6.445
172652.068	433331.733	6.286
172652.174	433332.189	6.404
172652.278	433332.688	6.446
172652.388	433333.047	6.744
172652.495	433333.458	6.948
172652.604	433333.829	7.225
172652.714	433334.148	7.589
172652.808	433335.152	6.771
172652.920	433335.416	7.236
172653.029	433335.820	7.462
172653.124	433337.145	6.156
172653.235	433337.621	6.280
172653.344	433338.223	6.202
172653.566	433339.391	6.127
172645.371	433296.617	11.307
172645.448	433297.003	11.306
172645.509	433297.404	11.170
172645.601	433297.775	11.312
172645.648	433298.196	11.021
172645.697	433298.617	10.752
172645.773	433299.009	10.743
172645.846	433299.406	10.696
172645.910	433299.816	10.562
172645.967	433300.239	10.352
172646.039	433300.643	10.292
172646.111	433301.048	10.225
172646.177	433301.466	10.090
172646.244	433301.883	9.968
172646.306	433302.312	9.790
172646.373	433302.736	9.653
172646.447	433303.148	9.596
172646.503	433303.601	9.327
172646.578	433304.015	9.275
172646.658	433304.423	9.265
172646.732	433304.845	9.189
172646.798	433305.286	9.028
172646.878	433305.700	9.005
172646.947	433306.140	8.868
172647.028	433306.553	8.860
172647.096	433307.005	8.688
172647.161	433307.468	8.481
172647.239	433307.899	8.422
172647.305	433308.368	8.210
172647.373	433308.838	8.011
172647.457	433309.259	8.018
172647.533	433309.709	7.911
172647.608	433310.167	7.788
172647.682	433310.632	7.647
172647.763	433311.074	7.597
172647.843	433311.526	7.520
172647.916	433312.006	7.349
172647.985	433312.511	7.105
172648.047	433313.057	6.740
172648.148	433313.432	6.952
172648.243	433313.838	7.060
172648.310	433314.373	6.761
172648.376	433314.926	6.418
172648.471	433315.341	6.515
172648.564	433315.765	6.586
172648.667	433316.135	6.820
172648.763	433316.544	6.934
172648.854	433316.983	6.964
172648.956	433317.356	7.185
172649.005	433318.066	6.470
172649.117	433318.385	6.846
172649.178	433319.043	6.307
172649.270	433319.501	6.314
172649.374	433319.875	6.548
172649.458	433320.402	6.384
172649.546	433320.903	6.297
172649.638	433321.379	6.278
172649.730	433321.857	6.262
172649.827	433322.308	6.314
172649.916	433322.829	6.202
172650.015	433323.254	6.324
172650.119	433323.643	6.530
172650.219	433324.063	6.665
172650.326	433324.421	6.940
172650.415	433324.975	6.779
172650.533	433325.186	7.376
172650.600	433326.043	6.567
172650.697	433326.527	6.580
172650.788	433327.115	6.379
172650.881	433327.697	6.200
172650.983	433328.141	6.312
172651.087	433328.559	6.481
172651.206	433328.729	7.144
172651.303	433329.274	7.057
172651.409	433329.651	7.303
172651.490	433330.563	6.523
172651.601	433330.872	6.908
172651.691	433331.654	6.404
172651.791	433332.257	6.248
172651.897	433332.704	6.387
172652.000	433333.262	6.327
172652.106	433333.744	6.410
172652.216	433334.097	6.722
172652.319	433334.742	6.524
172652.453	433334.015	8.701
172652.535	433335.687	6.746
172652.646	433335.991	7.145
172652.754	433336.477	7.237
172653.075	433338.730	6.256
172653.299	433339.728	6.457
172653.411	433340.259	6.513
172653.524	433340.857	6.471
172644.997	433296.606	11.285
172645.069	433296.996	11.245
172645.138	433297.390	11.167
172645.197	433297.796	11.002
172645.252	433298.209	10.791
172645.320	433298.610	10.700
172645.387	433299.013	10.601
172645.466	433299.403	10.613
172645.526	433299.820	10.430
172645.594	433300.228	10.328
172645.650	433300.655	10.111
172645.730	433301.049	10.122
172645.794	433301.470	9.968
172645.861	433301.888	9.846
172645.926	433302.313	9.696
172645.996	433302.732	9.589
172646.061	433303.164	9.424
172646.130	433303.588	9.312
172646.198	433304.019	9.172
172646.273	433304.439	9.103
172646.357	433304.838	9.144
172646.420	433305.289	8.933
172646.500	433305.702	8.920
172646.570	433306.142	8.783
172646.652	433306.552	8.794
172646.723	433306.995	8.662
172646.793	433307.444	8.513
172646.859	433307.909	8.308
172646.930	433308.368	8.145
172647.010	433308.797	8.110
172647.086	433309.244	8.010
172647.159	433309.704	7.864
172647.230	433310.175	7.692
172647.303	433310.648	7.523
172647.384	433311.091	7.472
172647.456	433311.575	7.280
172647.533	433312.041	7.167
172647.620	433312.473	7.172
172647.687	433312.993	6.893
172647.773	433313.437	6.875
172647.865	433313.855	6.945
172647.947	433314.324	6.855
172648.095	433315.354	6.419
172648.194	433315.750	6.575
172648.288	433316.170	6.658
172648.399	433316.493	7.026
172648.496	433316.895	7.160
172648.593	433317.293	7.305
172648.685	433317.724	7.359
172648.813	433318.988	6.397
172648.906	433319.443	6.414
172648.999	433319.891	6.451
172649.090	433320.365	6.426
172649.177	433320.880	6.302
172649.269	433321.349	6.301
172649.357	433321.867	6.183
172649.453	433322.323	6.226
172649.636	433323.329	6.098
172649.737	433323.747	6.240
172649.839	433324.156	6.403
172649.943	433324.548	6.605
172650.046	433324.943	6.800
172650.141	433325.436	6.778
172650.235	433325.956	6.706
172650.324	433326.550	6.482
172650.420	433327.078	6.408
172650.516	433327.607	6.336
172650.615	433328.099	6.349
172650.720	433328.494	6.563
172650.817	433329.045	6.465
172650.920	433329.498	6.567
172651.041	433329.608	7.339
172651.146	433329.998	7.560
172651.244	433330.563	7.447
172651.329	433331.464	6.712
172651.424	433332.170	6.362
172651.525	433332.760	6.236
172651.629	433333.304	6.202
172651.736	433333.752	6.347
172651.840	433334.333	6.259
172651.954	433334.547	6.817
172652.063	433334.943	7.055
172652.164	433335.717	6.648
172652.275	433336.067	6.970
172652.389	433336.112	7.799
172652.706	433338.724	6.217
172652.817	433339.244	6.282
172652.929	433339.808	6.283
172653.042	433340.119	6.684
172653.155	433340.743	6.599
172644.615	433296.591	11.332
172644.670	433296.997	11.133
172644.746	433297.385	11.125
172644.808	433297.787	10.990
172644.862	433298.201	10.768
172644.927	433298.606	10.647
172645.000	433299.003	10.598
172645.069	433299.406	10.511
172645.127	433299.825	10.318
172645.196	433300.232	10.226
172645.269	433300.636	10.166
172645.334	433301.053	10.029
172645.408	433301.457	9.983
172645.468	433301.888	9.782
172645.534	433302.311	9.642
172645.607	433302.726	9.564
172645.671	433303.157	9.400
172645.742	433303.579	9.297
172645.811	433304.009	9.166
172645.885	433304.428	9.097
172645.983	433304.796	9.295
172646.046	433305.246	9.084
172646.117	433305.679	8.973
172646.184	433306.127	8.796
172646.258	433306.561	8.700
172646.335	433306.986	8.646
172646.405	433307.436	8.496
172646.473	433307.896	8.311
172646.546	433308.345	8.186
172646.631	433308.762	8.199
172646.692	433309.255	7.915
172646.768	433309.706	7.808
172646.843	433310.164	7.684
172646.925	433310.603	7.640
172647.002	433311.061	7.531
172647.069	433311.564	7.271
172647.138	433312.065	7.034
172647.224	433312.499	7.039
172647.309	433312.944	7.008
172647.391	433313.402	6.942
172647.487	433313.802	7.069
172647.717	433315.298	6.542
172647.812	433315.710	6.650
172647.922	433316.040	6.997
172647.987	433316.628	6.591
172648.096	433316.960	6.932
172648.188	433317.396	6.974
172648.296	433317.733	7.291
172648.441	433318.879	6.648
172648.524	433319.400	6.486
172648.655	433319.560	7.269
172648.728	433320.161	6.907
172648.793	433320.846	6.345
172648.887	433321.300	6.382
172648.978	433321.795	6.319
172649.069	433322.284	6.277
172649.203	433322.384	7.170
172649.355	433323.691	6.327
172649.454	433324.128	6.426
172649.560	433324.496	6.682
172649.677	433324.722	7.250
172649.759	433325.375	6.873
172649.849	433325.936	6.709
172649.936	433326.563	6.413
172650.032	433327.083	6.357
172650.143	433327.387	6.754
172650.230	433328.061	6.388
172650.339	433328.398	6.717
172650.436	433328.944	6.628
172650.535	433329.459	6.605
172650.652	433329.647	7.225
172650.763	433329.908	7.695
172650.872	433330.212	8.077
172650.957	433331.100	7.357
172651.039	433332.129	6.397
172651.144	433332.600	6.491
172651.248	433333.123	6.491
172651.348	433333.804	6.216
172651.456	433334.247	6.371
172651.566	433334.585	6.712
172651.677	433334.886	7.115
172651.785	433335.346	7.242
172651.893	433335.795	7.390
172652.209	433338.182	6.153
172652.431	433339.232	6.262
172652.544	433339.641	6.508
172652.656	433340.377	6.243
172652.769	433340.769	6.520
172652.883	433341.319	6.556
172644.225	433296.615	11.194
172644.297	433297.006	11.153
172644.382	433297.384	11.234
172644.427	433297.804	10.930
172644.475	433298.226	10.649
172644.538	433298.633	10.509
172644.616	433299.025	10.509
172644.677	433299.439	10.343
172644.752	433299.836	10.318
172644.814	433300.253	10.157
172644.874	433300.676	9.969
172644.952	433301.074	9.960
172645.015	433301.497	9.796
172645.084	433301.914	9.683
172645.147	433302.343	9.514
172645.213	433302.772	9.357
172645.290	433303.180	9.330
172645.372	433303.581	9.345
172645.438	433304.016	9.185
172645.518	433304.422	9.185
172645.589	433304.850	9.079
172645.662	433305.279	8.975
172645.733	433305.712	8.865
172645.811	433306.131	8.825
172645.880	433306.580	8.660
172645.943	433307.043	8.440
172646.016	433307.487	8.320
172646.092	433307.925	8.232
172646.163	433308.381	8.078
172646.244	433308.810	8.043
172646.320	433309.255	7.953
172646.387	433309.736	7.729
172646.469	433310.172	7.692
172646.538	433310.655	7.485
172646.612	433311.130	7.318
172646.687	433311.601	7.174
172646.764	433312.070	7.051
172646.842	433312.540	6.932
172646.929	433312.977	6.930
172647.017	433313.409	6.949
172647.086	433313.936	6.666
172647.341	433315.315	6.521
172647.442	433315.691	6.733
172647.552	433316.025	7.071
172647.602	433316.696	6.418
172647.693	433317.141	6.440
172647.811	433317.419	6.934
172648.049	433319.004	6.336
172648.170	433319.254	6.894
172648.231	433319.939	6.306
172648.340	433320.272	6.644
172648.425	433320.794	6.500
172648.526	433321.198	6.657
172648.627	433321.590	6.843
172648.722	433322.042	6.884
172648.799	433322.672	6.503
172648.882	433323.260	6.237
172648.976	433323.745	6.223
172649.072	433324.218	6.240
172649.184	433324.522	6.643
172649.277	433325.036	6.573
172649.390	433325.310	7.033
172649.471	433325.988	6.615
172649.570	433326.446	6.681
172649.673	433326.857	6.850
172649.773	433327.320	6.912
172649.858	433328.019	6.492
172649.971	433328.294	6.947
172650.052	433329.106	6.320
172650.167	433329.338	6.859
172650.271	433329.767	7.008
172650.381	433330.075	7.389
172650.468	433330.883	6.816
172650.587	433330.974	7.608
172650.685	433331.589	7.414
172650.768	433332.624	6.460
172650.883	433332.829	7.038
172650.987	433333.336	7.066
172651.082	433334.218	6.436
172651.187	433334.769	6.403
172651.296	433335.202	6.582
172651.405	433335.599	6.823
172651.519	433335.724	7.523
172651.616	433336.939	6.395
172651.726	433337.398	6.542
172651.835	433338.030	6.412
172652.281	433340.371	6.263
172643.838	433296.601	11.201
172643.896	433297.005	11.022
172643.959	433297.406	10.894
172644.029	433297.802	10.828
172644.087	433298.213	10.636
172644.151	433298.620	10.505
172644.211	433299.033	10.337
172644.288	433299.428	10.320
172644.356	433299.834	10.225
172644.420	433300.250	10.074
172644.497	433300.647	10.062
172644.554	433301.078	9.837
172644.628	433301.485	9.781
172644.689	433301.915	9.590
172644.761	433302.329	9.509
172644.830	433302.749	9.401
172644.899	433303.174	9.276
172644.965	433303.606	9.123
172645.041	433304.022	9.072
172645.110	433304.455	8.934
172645.190	433304.865	8.926
172645.268	433305.281	8.891
172645.344	433305.704	8.828
172645.422	433306.125	8.778
172645.487	433306.582	8.575
172645.552	433307.042	8.374
172645.635	433307.459	8.371
172645.705	433307.913	8.214
172645.788	433308.331	8.215
172645.849	433308.822	7.928
172645.931	433309.250	7.905
172645.998	433309.731	7.682
172646.076	433310.182	7.587
172646.148	433310.658	7.408
172646.217	433311.149	7.184
172646.306	433311.567	7.231
172646.375	433312.068	6.994
172646.458	433312.519	6.941
172646.550	433312.930	7.025
172646.638	433313.365	7.034
172646.726	433313.800	7.047
172646.866	433314.857	6.498
172646.957	433315.290	6.538
172647.049	433315.720	6.589
172647.161	433316.035	6.983
172647.263	433316.408	7.200
172647.332	433316.977	6.852
172647.405	433317.530	6.564
172647.664	433318.992	6.314
172647.767	433319.369	6.535
172647.848	433319.909	6.330
172647.953	433320.271	6.593
172648.049	433320.704	6.672
172648.154	433321.067	6.930
172648.247	433321.529	6.940
172648.319	433322.187	6.481
172648.408	433322.711	6.359
172648.501	433323.197	6.333
172648.689	433324.182	6.270
172648.790	433324.607	6.399
172648.895	433324.983	6.639
172648.985	433325.539	6.481
172649.090	433325.922	6.708
172649.194	433326.312	6.918
172649.290	433326.820	6.878
172649.378	433327.460	6.571
172649.472	433328.025	6.430
172649.578	433328.411	6.660
172649.674	433328.974	6.535
172649.801	433328.980	7.520
172649.883	433329.810	6.874
172649.998	433330.023	7.442
172650.102	433330.435	7.621
172650.204	433330.921	7.661
172650.276	433332.204	6.224
172650.387	433332.522	6.599
172650.498	433332.813	7.019
172650.603	433333.315	7.056
172650.695	433334.300	6.242
172650.802	433334.773	6.348
172650.910	433335.266	6.423
172651.025	433335.371	7.165
172651.137	433335.586	7.709
172651.343	433337.299	6.658
172651.454	433337.685	6.927
172651.564	433338.195	6.995
172651.784	433339.801	6.219
172652.010	433340.921	6.248
172643.438	433296.589	11.009
172643.519	433296.973	11.038
172643.564	433297.391	10.742
172643.632	433297.790	10.656
172643.703	433298.187	10.592
172643.767	433298.594	10.461
172643.836	433298.997	10.372
172643.899	433299.408	10.225
172643.969	433299.814	10.141
172644.036	433300.226	10.018
172644.100	433300.644	9.869
172644.181	433301.038	9.889
172644.228	433301.487	9.558
