173220.313	433859.763	6.947
173220.268	433859.302	6.984
173220.224	433858.795	6.946
173220.181	433858.268	6.877
173220.133	433857.833	6.975
173220.090	433857.288	6.887
173220.044	433856.806	6.914
173219.987	433856.540	7.304
173219.884	433857.372	9.498
173219.883	433855.834	7.788
173220.763	433860.638	6.882
173220.719	433860.164	6.887
173220.674	433859.698	6.913
173220.629	433859.222	6.924
173220.584	433858.740	6.930
173220.540	433858.232	6.895
173220.494	433857.758	6.925
173220.450	433857.237	6.879
173220.404	433856.740	6.880
173220.355	433856.299	6.979
173220.256	433857.036	9.020
173220.195	433856.924	9.638
173220.155	433856.300	9.423
173221.121	433860.617	6.997
173221.079	433860.105	6.932
173221.037	433859.596	6.879
173220.990	433859.163	6.969
173220.947	433858.637	6.896
173220.902	433858.159	6.914
173220.857	433857.659	6.900
173220.813	433857.133	6.847
173220.763	433856.734	7.012
173220.711	433856.365	7.230
173220.666	433855.832	7.177
173220.565	433856.632	9.300
173220.576	433854.755	7.074
173221.533	433860.992	6.967
173221.491	433860.486	6.908
173221.444	433860.069	7.019
173221.402	433859.560	6.966
173221.357	433859.074	6.960
173221.314	433858.563	6.914
173221.270	433858.059	6.889
173221.224	433857.590	6.927
173221.177	433857.120	6.969
173221.129	433856.674	7.056
173221.085	433856.146	7.009
173221.034	433855.737	7.162
173220.989	433855.201	7.113
173220.945	433854.638	7.026
173221.874	433860.932	6.988
173221.836	433860.368	6.824
173221.787	433859.984	6.997
173221.745	433859.456	6.909
173221.697	433859.048	7.043
173221.656	433858.492	6.919
173221.609	433858.038	6.980
173221.568	433857.474	6.855
173221.519	433857.054	6.983
173221.472	433856.568	7.002
173221.426	433856.081	7.024
173221.380	433855.577	7.023
173221.335	433855.031	6.958
173221.288	433854.509	6.939
173222.216	433860.879	6.948
173222.173	433860.382	6.907
173222.133	433859.850	6.808
173222.085	433859.422	6.904
173222.040	433858.946	6.916
173221.994	433858.483	6.958
173221.950	433857.980	6.932
173221.907	433857.445	6.858
173221.863	433856.914	6.797
173221.813	433856.493	6.928
173221.768	433855.975	6.899
173221.705	433855.840	7.505
173221.673	433855.002	6.961
173221.621	433854.623	7.172
173222.580	433860.810	6.951
173222.538	433860.303	6.892
173222.493	433859.843	6.924
173222.448	433859.367	6.934
173222.408	433858.798	6.780
173222.358	433858.403	6.943
173222.315	433857.875	6.875
173222.271	433857.360	6.836
173222.223	433856.910	6.913
173222.175	433856.454	6.984
173222.132	433855.895	6.886
173222.087	433855.359	6.835
173222.025	433855.205	7.409
173221.982	433854.606	7.261
173222.928	433860.724	6.929
173222.884	433860.255	6.941
173222.838	433859.810	7.000
173222.795	433859.301	6.948
173222.752	433858.800	6.916
173222.708	433858.293	6.880
173222.663	433857.804	6.881
173222.611	433857.430	7.084
173222.567	433856.910	7.040
173222.526	433856.306	6.861
173222.474	433855.927	7.064
173222.430	433855.366	6.970
173222.380	433854.929	7.084
173222.338	433854.307	6.904
173223.292	433860.627	6.912
173223.248	433860.163	6.933
173223.200	433859.737	7.027
173223.160	433859.194	6.914
173223.116	433858.692	6.883
173223.070	433858.234	6.934
173223.025	433857.731	6.909
173222.978	433857.281	6.983
173222.890	433857.614	8.386
173222.883	433856.356	7.096
173222.816	433856.303	7.838
173222.793	433855.298	7.008
173222.754	433854.594	6.688
173223.635	433860.543	6.843
173223.587	433860.126	6.953
173223.542	433859.671	6.994
173223.499	433859.166	6.951
173223.456	433858.655	6.903
173223.413	433858.118	6.815
173223.365	433857.684	6.912
173223.319	433857.194	6.917
173223.273	433856.714	6.942
173223.226	433856.222	6.953
173223.177	433855.776	7.045
173223.132	433855.257	7.019
173223.090	433854.626	6.819
173224.042	433860.981	6.917
173224.000	433860.480	6.865
173223.956	433860.005	6.869
173223.910	433859.545	6.902
173223.864	433859.098	6.965
173223.818	433858.631	6.995
173223.776	433858.100	6.915
173223.731	433857.591	6.883
173223.684	433857.131	6.940
173223.633	433856.737	7.111
173223.590	433856.175	7.002
173223.541	433855.739	7.111
173223.498	433855.137	6.949
173223.451	433854.642	6.970
173223.403	433854.146	6.995
173224.402	433860.936	6.919
173224.359	433860.449	6.894
173224.313	433859.999	6.942
173224.271	433859.481	6.870
173224.223	433859.048	6.958
173224.180	433858.537	6.910
173224.134	433858.070	6.944
173224.090	433857.556	6.902
173224.042	433857.097	6.959
173223.986	433856.799	7.295
173223.948	433856.140	7.022
173223.898	433855.725	7.165
173223.852	433855.196	7.122
173223.796	433854.897	7.458
173223.761	433854.101	6.998
173224.768	433860.886	6.956
173224.725	433860.394	6.922
173224.681	433859.911	6.909
173224.637	433859.431	6.907
173224.590	433858.975	6.952
173224.546	433858.479	6.930
173224.500	433858.011	6.964
173224.455	433857.497	6.923
173224.410	433857.008	6.928
173224.351	433856.746	7.324
173224.301	433856.338	7.471
173224.226	433856.428	8.443
173224.223	433855.007	6.930
173224.169	433854.660	7.190
173224.110	433854.420	7.620
173225.111	433860.808	6.873
173225.065	433860.354	6.909
173225.018	433859.913	6.975
173224.976	433859.405	6.921
173224.931	433858.920	6.913
173224.888	433858.394	6.839
173224.840	433857.946	6.908
173224.793	433857.482	6.953
173224.744	433857.048	7.053
173224.701	433856.486	6.941
173224.649	433856.102	7.133
173224.610	433855.450	6.882
173224.520	433855.859	8.375
173224.511	433854.524	7.024
173224.428	433854.820	8.311
173225.461	433860.764	6.884
173225.415	433860.310	6.920
173225.367	433859.894	7.030
173225.322	433859.420	7.036
173225.276	433858.944	7.046
173225.232	433858.444	7.015
173225.189	433857.907	6.927
173225.139	433857.494	7.059
173225.096	433856.949	6.969
173225.045	433856.535	7.107
173224.991	433856.188	7.358
173224.905	433856.489	8.680
173224.852	433856.156	8.940
173224.857	433854.513	7.086
173224.745	433855.484	9.448
173225.807	433860.748	6.949
173225.762	433860.285	6.968
173225.717	433859.816	6.981
173225.674	433859.299	6.909
173225.628	433858.837	6.945
173225.584	433858.321	6.889
173225.535	433857.898	7.001
173225.484	433857.490	7.141
173225.438	433857.001	7.146
173225.393	433856.476	7.094
173225.286	433857.182	9.104
173225.244	433856.602	8.950
173225.198	433856.118	8.962
173225.139	433855.897	9.402
173225.118	433854.809	8.453
173226.179	433860.663	6.915
173226.130	433860.261	7.048
173226.088	433859.735	6.956
173226.042	433859.270	6.980
173226.000	433858.746	6.903
173225.956	433858.235	6.856
173225.907	433857.792	6.933
173225.864	433857.243	6.832
173225.807	433856.950	7.174
173225.761	433856.440	7.148
173225.657	433857.069	9.029
173225.593	433856.950	9.636
173225.527	433855.394	8.699
173225.456	433855.460	9.599
173226.525	433860.659	7.008
173226.479	433860.215	7.061
173226.438	433859.671	6.934
173226.393	433859.201	6.950
173226.347	433858.720	6.952
173226.304	433858.194	6.878
173226.256	433857.726	6.912
173226.204	433857.353	7.114
173226.159	433856.824	7.050
173226.045	433857.612	9.217
173226.005	433857.009	9.017
173225.961	433856.470	8.931
173225.853	433855.818	9.469
173226.934	433861.029	6.915
173226.890	433860.543	6.887
173226.843	433860.113	6.968
173226.798	433859.630	6.955
173226.752	433859.160	6.971
173226.705	433858.704	7.016
173226.661	433858.174	6.934
173226.616	433857.676	6.916
173226.570	433857.172	6.893
173226.474	433857.571	8.417
173226.418	433857.287	8.757
173226.426	433855.741	6.988
173226.324	433856.327	8.781
173226.333	433854.671	6.886
173226.280	433854.281	7.078
173226.158	433855.408	9.685
173227.288	433861.029	6.984
173227.245	433860.529	6.930
173227.198	433860.089	6.993
173227.156	433859.568	6.909
173227.108	433859.127	6.978
173227.065	433858.593	6.884
173227.016	433858.160	6.976
173226.970	433857.658	6.949
173226.921	433857.205	7.012
173226.879	433856.624	6.862
173226.825	433856.256	7.078
173226.773	433855.852	7.235
173226.686	433856.144	8.540
173226.632	433855.789	8.767
173226.597	433855.024	8.333
173227.662	433860.937	6.919
173227.615	433860.484	6.953
173227.570	433860.007	6.946
173227.527	433859.495	6.880
173227.479	433859.053	6.949
173227.432	433858.583	6.968
173227.386	433858.101	6.973
173227.342	433857.569	6.894
173227.294	433857.085	6.906
173227.247	433856.596	6.912
173227.178	433856.492	7.574
173227.149	433855.659	7.010
173227.046	433856.251	8.811
173226.986	433856.023	9.242
173226.940	433853.966	7.539
173228.003	433860.930	7.025
173227.962	433860.412	6.935
173227.913	433859.977	7.007
173227.868	433859.494	6.994
173227.818	433859.073	7.098
173227.776	433858.534	6.995
173227.731	433858.024	6.947
173227.682	433857.571	7.008
173227.632	433857.138	7.105
173227.558	433857.114	7.904
173227.506	433856.720	8.065
173227.493	433855.581	6.986
173227.378	433856.391	9.146
173227.397	433854.553	6.952
173228.357	433860.876	7.041
173228.316	433860.348	6.934
173228.272	433859.852	6.892
173228.222	433859.430	6.993
173228.174	433858.975	7.036
173228.131	433858.436	6.933
173228.086	433857.920	6.877
173228.037	433857.472	6.947
173227.989	433856.994	6.967
173227.940	433856.514	6.990
173227.881	433856.223	7.335
173227.778	433856.783	9.094
173227.700	433853.957	6.915
173227.647	433853.514	7.026
173228.686	433861.028	7.413
173228.655	433860.352	7.023
173228.611	433859.856	6.980
173228.563	433859.397	7.011
173228.517	433858.923	7.019
173228.474	433858.384	6.916
173228.428	433857.873	6.869
173228.378	433857.429	6.947
173228.330	433856.951	6.968
173228.254	433856.962	7.827
173228.230	433856.027	7.077
173228.178	433855.608	7.210
173228.077	433856.124	8.882
173228.087	433854.457	6.970
173228.029	433854.131	7.264
173227.981	433853.594	7.221
173229.067	433860.821	7.081
173229.023	433860.312	7.009
173228.974	433859.892	7.108
173228.932	433859.347	6.980
173228.887	433858.844	6.936
173228.840	433858.358	6.929
173228.794	433857.857	6.899
173228.746	433857.369	6.899
173228.698	433856.891	6.920
173228.646	433856.467	7.038
173228.595	433856.007	7.098
173228.552	433855.398	6.913
173228.499	433854.988	7.066
173228.447	433854.542	7.161
173228.392	433854.133	7.319
173228.351	433853.447	7.039
173229.418	433860.818	7.174
173229.371	433860.357	7.190
173229.330	433859.810	7.050
173229.288	433859.269	6.932
173229.240	433858.814	6.975
173229.195	433858.290	6.899
173229.146	433857.833	6.948
173229.098	433857.345	6.947
173229.048	433856.897	7.020
173228.999	433856.408	7.025
173228.947	433855.973	7.129
173228.902	433855.416	7.030
173228.854	433854.887	6.986
173228.799	433854.493	7.166
173228.748	433854.021	7.222
173228.704	433853.372	7.002
173229.783	433860.761	7.181
173229.729	433860.398	7.382
173229.695	433859.757	7.067
173229.653	433859.217	6.948
173229.606	433858.733	6.939
173229.556	433858.296	7.020
173229.510	433857.785	6.973
173229.460	433857.318	7.007
173229.410	433856.860	7.062
173229.318	433857.135	8.369
173229.317	433855.804	6.948
173229.244	433855.740	7.672
173229.144	433856.234	9.300
173229.126	433855.139	8.316
173229.123	433853.689	6.790
173229.068	433853.277	6.951
173230.125	433860.794	7.312
173230.085	433860.235	7.142
173230.040	433859.739	7.099
173229.995	433859.228	7.034
173229.948	433858.754	7.041
173229.901	433858.259	7.017
173229.853	433857.778	7.023
173229.803	433857.316	7.066
173229.758	433856.778	6.982
173229.655	433857.226	8.582
173229.659	433855.793	6.989
173229.527	433856.838	9.554
173229.482	433856.301	9.468
173229.419	433856.109	9.947
173229.398	433855.064	9.052
173230.490	433860.775	7.321
173230.445	433860.286	7.284
173230.395	433859.858	7.364
173230.361	433859.190	7.008
173230.315	433858.682	6.954
173230.268	433858.182	6.922
173230.219	433857.720	6.962
173230.171	433857.218	6.935
173230.121	433856.745	6.964
173230.072	433856.260	6.979
173229.969	433856.720	8.586
173229.894	433856.711	9.382
173229.839	433856.361	9.604
173229.871	433854.277	7.010
173229.749	433855.237	9.365
173230.818	433860.972	7.771
173230.799	433860.143	7.089
173230.754	433859.633	7.020
173230.709	433859.122	6.954
173230.658	433858.686	7.032
173230.607	433858.240	7.095
173230.559	433857.755	7.091
173230.513	433857.223	7.013
173230.462	433856.755	7.050
173230.413	433856.261	7.047
173230.294	433857.003	9.127
173230.240	433856.620	9.295
173230.261	433854.809	7.118
173230.152	433853.955	7.371
173230.112	433853.216	7.006
173231.177	433860.944	7.819
173231.156	433860.134	7.172
173231.103	433859.739	7.314
173231.065	433859.114	7.037
173231.016	433858.654	7.071
173230.971	433858.126	6.986
173230.922	433857.640	6.983
173230.870	433857.197	7.061
173230.825	433856.639	6.942
173230.770	433856.226	7.078
173230.654	433856.916	9.071
173230.668	433855.276	7.150
173230.613	433854.847	7.268
173230.564	433854.318	7.227
173230.517	433853.724	7.087
173230.469	433853.139	6.969
173231.535	433860.619	7.269
173231.489	433860.126	7.223
173231.443	433859.635	7.188
173231.400	433859.091	7.061
173231.353	433858.593	7.025
173231.304	433858.104	7.010
173231.252	433857.662	7.084
173231.204	433857.160	7.058
173231.156	433856.648	7.017
173231.104	433856.184	7.066
173231.056	433855.648	6.998
173230.940	433856.353	8.997
173230.948	433854.779	7.214
173230.899	433854.234	7.147
173230.851	433853.662	7.042
173230.792	433853.289	7.262
173231.879	433860.598	7.269
173231.835	433860.072	7.161
173231.787	433859.601	7.162
173231.738	433859.133	7.175
173231.694	433858.588	7.051
173231.644	433858.127	7.088
173231.598	433857.583	6.980
173231.547	433857.126	7.031
173231.500	433856.577	6.930
173231.449	433856.103	6.962
173231.394	433855.679	7.083
173231.346	433855.127	6.992
173231.295	433854.624	6.991
173231.242	433854.141	7.027
173231.188	433853.684	7.108
173231.141	433853.078	6.956
173232.245	433860.589	7.319
173232.204	433860.030	7.149
173232.151	433859.625	7.274
173232.108	433859.072	7.128
173232.058	433858.613	7.162
173232.009	433858.129	7.155
173231.964	433857.565	7.011
173231.913	433857.108	7.063
173231.868	433856.520	6.893
173231.813	433856.107	7.028
173231.759	433855.663	7.114
173231.711	433855.116	7.032
173231.661	433854.587	6.988
173231.608	433854.105	7.024
173231.554	433853.626	7.071
173231.505	433853.062	6.987
173232.656	433860.937	7.220
173232.609	433860.454	7.188
173232.560	433859.998	7.213
173232.516	433859.465	7.100
173232.464	433859.031	7.175
173232.417	433858.524	7.121
173232.367	433858.040	7.114
173232.317	433857.564	7.127
173232.268	433857.063	7.101
173232.221	433856.515	7.000
173232.169	433856.057	7.057
173232.118	433855.562	7.058
173232.062	433855.148	7.199
173232.015	433854.553	7.043
173231.962	433854.060	7.062
173231.910	433853.566	7.084
173231.852	433853.152	7.236
173233.020	433860.882	7.215
173232.970	433860.436	7.255
173232.927	433859.905	7.138
173232.876	433859.457	7.184
173232.824	433859.028	7.267
173232.779	433858.483	7.143
173232.725	433858.062	7.249
173232.677	433857.553	7.202
173232.632	433856.982	7.053
173232.584	433856.460	6.996
173232.529	433856.026	7.097
173232.478	433855.526	7.089
173232.426	433855.036	7.101
173232.372	433854.581	7.176
173232.324	433853.989	7.033
173232.270	433853.521	7.098
173232.216	433853.032	7.132
173233.359	433860.904	7.317
173233.318	433860.347	7.144
173233.272	433859.834	7.063
173233.220	433859.395	7.127
173233.171	433858.923	7.131
173233.120	433858.459	7.156
173233.069	433857.990	7.175
173233.018	433857.520	7.197
173232.972	433856.964	7.075
173232.923	433856.447	7.026
173232.866	433856.039	7.170
173232.818	433855.483	7.067
173232.765	433855.013	7.113
173232.712	433854.527	7.137
173232.665	433853.919	6.969
173232.609	433853.462	7.051
173232.552	433853.025	7.169
173233.710	433860.908	7.360
173233.665	433860.398	7.275
173233.617	433859.915	7.246
173233.566	433859.463	7.282
173233.519	433858.948	7.207
173233.471	433858.441	7.153
173233.422	433857.943	7.120
173233.372	433857.453	7.107
173233.320	433856.991	7.150
173233.273	433856.419	7.005
173233.221	433855.940	7.028
173233.169	433855.445	7.029
173233.114	433854.985	7.093
173233.061	433854.510	7.134
173233.010	433853.970	7.075
173232.954	433853.503	7.140
173232.902	433852.966	7.097
173234.056	433860.835	7.321
173234.006	433860.386	7.351
173233.950	433860.001	7.507
173233.902	433859.503	7.455
173233.854	433859.004	7.406
173233.809	433858.459	7.281
173233.753	433858.069	7.439
173233.705	433857.546	7.365
173233.656	433857.016	7.286
173233.606	433856.520	7.270
173233.557	433855.972	7.172
173233.506	433855.457	7.138
173233.453	433854.972	7.158
173233.401	433854.450	7.122
173233.349	433853.941	7.116
173233.297	433853.390	7.044
173233.244	433852.868	7.027
173234.410	433860.814	7.399
173234.357	433860.393	7.483
173234.309	433859.906	7.445
173234.254	433859.502	7.568
173234.207	433858.984	7.484
173234.154	433858.547	7.552
173234.102	433858.089	7.587
173234.063	433857.429	7.269
173234.006	433857.033	7.424
173233.959	433856.472	7.297
173233.907	433855.975	7.285
173233.856	433855.466	7.259
173233.806	433854.914	7.168
173233.755	433854.376	7.106
173233.700	433853.899	7.151
173233.649	433853.337	7.063
173233.595	433852.826	7.063
173234.748	433860.799	7.476
173234.694	433860.383	7.568
173234.630	433860.108	7.927
173234.595	433859.446	7.566
173234.544	433858.971	7.560
173234.497	433858.456	7.488
173234.439	433858.077	7.664
173234.398	433857.441	7.389
173234.344	433856.996	7.457
173234.295	433856.460	7.372
173234.243	433855.968	7.369
173234.190	433855.480	7.377
173234.142	433854.898	7.235
173234.092	433854.340	7.139
173234.036	433853.879	7.209
173233.982	433853.381	7.223
173233.929	433852.844	7.180
173235.091	433860.924	7.772
173235.037	433860.519	7.881
173234.989	433860.024	7.824
173234.941	433859.537	7.789
173234.897	433858.972	7.616
173234.844	433858.521	7.657
173234.792	433858.064	7.692
173234.747	433857.488	7.522
173234.698	433856.964	7.451
173234.646	433856.474	7.444
173234.593	433855.992	7.458
173234.543	433855.449	7.371
173234.488	433854.985	7.425
173234.436	433854.454	7.372
173234.386	433853.884	7.262
173234.331	433853.376	7.258
173234.278	433852.834	7.207
173235.432	433860.929	7.884
173235.383	433860.454	7.860
173235.331	433860.020	7.918
173235.282	433859.525	7.865
173235.237	433858.984	7.736
173235.185	433858.519	7.751
173235.128	433858.126	7.899
173235.081	433857.581	7.781
173235.041	433856.924	7.475
173234.981	433856.549	7.667
173234.932	433856.003	7.568
173234.885	433855.413	7.404
173234.831	433854.919	7.407
173234.781	433854.356	7.302
173234.725	433853.876	7.337
173234.671	433853.357	7.317
173234.618	433852.821	7.274
173235.783	433861.021	8.129
173235.740	433860.478	7.972
173235.686	433860.059	8.057
173235.640	433859.531	7.941
173235.585	433859.121	8.049
173235.539	433858.570	7.905
173235.489	433858.080	7.879
173235.433	433857.663	7.986
173235.386	433857.102	7.845
173235.340	433856.518	7.672
173235.290	433855.977	7.582
173235.237	433855.469	7.555
173235.186	433854.940	7.498
173235.131	433854.445	7.504
173235.075	433853.987	7.572
173235.023	433853.432	7.491
173234.965	433852.966	7.558
173236.115	433860.984	8.150
173236.071	433860.446	8.002
173236.023	433859.952	7.945
173235.972	433859.485	7.944
173235.919	433859.046	7.999
173235.870	433858.538	7.935
173235.819	433858.049	7.908
173235.762	433857.642	8.033
173235.707	433857.205	8.108
173235.667	433856.522	7.762
173235.612	433856.063	7.809
173235.563	433855.495	7.679
173235.507	433855.039	7.741
173235.446	433854.665	7.942
173235.403	433853.946	7.585
173235.341	433853.588	7.817
173235.289	433853.011	7.705
173236.404	433860.538	8.212
173236.349	433860.135	8.322
173236.299	433859.651	8.286
173236.260	433859.027	7.998
173236.201	433858.650	8.169
173236.149	433858.182	8.176
173236.099	433857.663	8.100
173236.045	433857.202	8.131
173235.996	433856.654	8.019
173235.945	433856.130	7.953
173235.893	433855.610	7.899
173235.843	433855.041	7.772
173235.789	433854.543	7.769
173235.730	433854.122	7.896
173235.671	433853.697	8.017
173235.624	433853.010	7.727
173236.723	433860.521	8.268
173236.666	433860.137	8.413
173236.623	433859.563	8.209
173236.574	433859.063	8.149
173236.525	433858.552	8.075
173236.467	433858.156	8.214
173236.416	433857.647	8.155
173236.363	433857.167	8.151
173236.305	433856.771	8.298
173236.257	433856.187	8.128
173236.202	433855.719	8.160
173236.151	433855.162	8.049
173236.097	433854.655	8.028
173236.024	433854.504	8.588
173235.986	433853.674	8.054
173235.936	433853.045	7.857
173237.127	433860.996	8.383
173237.078	433860.510	8.331
173237.025	433860.070	8.371
173236.978	433859.543	8.255
173236.929	433859.043	8.195
173236.870	433858.653	8.339
173236.812	433858.269	8.494
173236.721	433858.380	9.520
173236.713	433857.213	8.309
173236.660	433856.722	8.291
173236.606	433856.240	8.294
173236.557	433855.660	8.136
173236.502	433855.180	8.154
173236.451	433854.606	8.021
173236.392	433854.186	8.148
173236.339	433853.630	8.057
173236.281	433853.156	8.104
173237.465	433860.950	8.409
173237.415	433860.465	8.357
173237.364	433860.006	8.361
173237.311	433859.550	8.377
173237.259	433859.075	8.361
173237.202	433858.672	8.479
173237.150	433858.195	8.468
173237.094	433857.757	8.530
173237.047	433857.188	8.370
173236.995	433856.677	8.317
173236.940	433856.216	8.354
173236.890	433855.641	8.205
173236.835	433855.157	8.215
173236.784	433854.588	8.090
173236.719	433854.269	8.378
173236.674	433853.559	8.041
173236.617	433853.054	8.038
173237.759	433860.470	8.433
173237.709	433859.979	8.376
173237.653	433859.567	8.470
173237.601	433859.097	8.463
173237.542	433858.708	8.606
173237.462	433858.634	9.310
173237.415	433858.087	9.170
173237.388	433857.207	8.462
173237.338	433856.657	8.340
173237.286	433856.134	8.274
173237.230	433855.672	8.314
173237.174	433855.198	8.339
173237.118	433854.698	8.326
173237.064	433854.175	8.282
173237.014	433853.550	8.080
173236.958	433853.040	8.069
173238.126	433860.979	8.599
173238.078	433860.475	8.511
173238.026	433860.003	8.489
173237.978	433859.486	8.390
173237.921	433859.074	8.488
173237.865	433858.642	8.553
173237.814	433858.151	8.516
173237.739	433857.995	9.073
173237.665	433857.839	9.621
173237.651	433856.735	8.537
173237.600	433856.189	8.427
173237.547	433855.665	8.364
173237.493	433855.156	8.330
173237.441	433854.583	8.197
173237.385	433854.091	8.204
173237.327	433853.614	8.240
173237.271	433853.088	8.203
173238.484	433860.927	8.560
173238.433	433860.461	8.543
173238.381	433859.989	8.520
173238.331	433859.492	8.456
173238.276	433859.051	8.501
173238.222	433858.600	8.531
173238.165	433858.173	8.607
173238.116	433857.621	8.469
173238.061	433857.163	8.499
173238.009	433856.643	8.429
173237.954	433856.146	8.405
173237.898	433855.674	8.428
173237.841	433855.217	8.479
173237.789	433854.639	8.337
173237.734	433854.117	8.292
173237.673	433853.699	8.421
173237.615	433853.228	8.468
173238.813	433860.847	8.513
173238.762	433860.376	8.487
173238.709	433859.913	8.482
173238.655	433859.473	8.524
173238.601	433859.009	8.525
173238.545	433858.582	8.599
173238.495	433858.047	8.484
173238.439	433857.604	8.537
173238.387	433857.091	8.472
173238.330	433856.631	8.506
173238.275	433856.150	8.508
173238.219	433855.679	8.530
173238.167	433855.108	8.393
173238.108	433854.666	8.473
173238.054	433854.123	8.394
173237.995	433853.674	8.472
173237.935	433853.219	8.544
173239.149	433860.825	8.559
173239.099	433860.321	8.472
173239.043	433859.905	8.555
173238.991	433859.428	8.527
173238.937	433858.958	8.519
173238.885	433858.459	8.462
173238.774	433857.549	8.522
173238.720	433857.055	8.492
173238.662	433856.626	8.577
173238.608	433856.110	8.519
173238.552	433855.639	8.541
173238.499	433855.094	8.447
173238.442	433854.605	8.450
173238.385	433854.109	8.448
173238.325	433853.655	8.517
173238.269	433853.125	8.470
173239.465	433860.752	8.509
173239.409	433860.328	8.571
173239.356	433859.870	8.575
173239.303	433859.388	8.538
173239.249	433858.933	8.557
173239.196	433858.443	8.517
173239.140	433857.991	8.550
173239.085	433857.524	8.560
173239.032	433857.001	8.478
173238.976	433856.536	8.503
173238.921	433856.035	8.470
173238.863	433855.584	8.527
173238.806	433855.096	8.527
173238.750	433854.592	8.504
173238.694	433854.070	8.460
173238.635	433853.584	8.478
173238.575	433853.130	8.550
173239.803	433860.801	8.665
173239.753	433860.312	8.604
173239.697	433859.874	8.643
173239.649	433859.329	8.491
173239.538	433858.428	8.548
173239.478	433858.040	8.695
173239.372	433857.016	8.561
173239.262	433856.011	8.484
173239.202	433855.581	8.575
173239.147	433855.067	8.532
173239.090	433854.568	8.518
173239.035	433854.026	8.439
173238.978	433853.497	8.390
173238.919	433853.015	8.420
173240.129	433860.757	8.645
173240.076	433860.291	8.628
173239.966	433859.400	8.682
173239.861	433858.398	8.555
173239.749	433857.475	8.589
173239.697	433856.937	8.481
173239.583	433855.997	8.516
173239.520	433855.623	8.701
173239.171	433860.588	17.705
173239.116	433860.272	17.884
173239.353	433854.044	8.522
173239.236	433853.040	8.510
173240.473	433860.689	8.614
173240.421	433860.200	8.553
173240.198	433858.407	8.665
173240.088	433857.440	8.620
173240.034	433856.933	8.564
173239.808	433854.963	8.501
173239.454	433860.256	17.939
173239.406	433859.773	17.848
173239.628	433853.578	8.656
173239.575	433852.948	8.449
173240.786	433860.614	8.577
173240.730	433860.176	8.613
173240.674	433859.728	8.634
173240.565	433858.796	8.625
173240.509	433858.341	8.646
173240.398	433857.374	8.602
173240.341	433856.906	8.615
173240.285	433856.422	8.605
173240.229	433855.917	8.564
173239.744	433860.626	18.628
173239.699	433860.093	18.450
173239.643	433859.797	18.656
173239.879	433852.945	8.533
173241.118	433860.598	8.609
173241.064	433860.123	8.575
173241.007	433859.703	8.649
173240.951	433859.245	8.656
173240.898	433858.752	8.604
173240.725	433857.414	8.729
173240.672	433856.872	8.612
173240.618	433856.342	8.524
173240.560	433855.877	8.552
173240.132	433860.898	18.440
173240.385	433854.420	8.560
173240.326	433853.931	8.567
173240.265	433853.456	8.602
173240.208	433852.900	8.513
173241.485	433861.013	8.578
173241.428	433860.586	8.629
173241.375	433860.106	8.585
173241.263	433859.209	8.631
173241.153	433858.237	8.557
173241.029	433857.482	8.887
173240.978	433856.911	8.717
173240.924	433856.367	8.603
173240.589	433860.897	17.070
173240.518	433860.835	17.675
173240.742	433855.059	8.840
173240.682	433854.593	8.877
173240.351	433859.843	18.134
173240.296	433859.508	18.282
173240.510	433852.971	8.657
173241.758	433860.559	8.655
173241.704	433860.080	8.612
173241.477	433858.275	8.697
173241.305	433856.881	8.734
173241.190	433855.903	8.700
173241.137	433855.325	8.542
173241.078	433854.833	8.533
173241.019	433854.349	8.545
173240.666	433860.109	18.626
173240.901	433853.316	8.476
173240.835	433852.947	8.683
173241.894	433859.178	8.730
173241.783	433858.207	8.656
173241.610	433856.808	8.685
173241.363	433859.697	14.438
173241.497	433855.789	8.582
173241.436	433855.344	8.648
173241.377	433854.857	8.647
173241.318	433854.359	8.633
173241.255	433853.928	8.733
173241.198	433853.364	8.623
173241.140	433852.808	8.535
173241.871	433860.259	13.189
173241.854	433856.291	8.684
173241.797	433855.786	8.643
173241.738	433855.300	8.639
173241.678	433854.829	8.665
173241.620	433854.284	8.574
173241.559	433853.821	8.623
173241.498	433853.331	8.632
173241.434	433852.904	8.746
173241.938	433854.269	8.594
173241.875	433853.817	8.660
173241.555	433859.418	18.373
173241.754	433852.788	8.605
173241.853	433859.657	18.814
173241.305	433835.991	8.676
173241.627	433835.828	15.599
173241.549	433838.966	8.862
173241.653	433839.362	9.084
173241.733	433839.796	9.002
173241.797	433840.258	8.725
173241.884	433840.683	8.727
173240.492	433835.594	8.984
173241.172	433838.974	8.919
173241.242	433839.423	8.716
173241.350	433839.812	8.990
173241.422	433840.262	8.801
173241.505	433840.695	8.753
173241.580	433841.144	8.599
173241.682	433841.541	8.803
173241.763	433841.981	8.723
173241.854	433842.401	8.773
173241.939	433842.834	8.747
173240.451	433837.316	8.843
173240.560	433837.709	9.116
173240.635	433838.145	8.984
173240.787	433839.019	8.749
173240.884	433839.426	8.882
173240.957	433839.872	8.721
173241.048	433840.289	8.779
173241.133	433840.718	8.761
173241.221	433841.141	8.784
173241.309	433841.567	8.790
173241.398	433841.988	8.828
173241.484	433842.419	8.809
173241.567	433842.857	8.753
173241.659	433843.274	8.828
173241.740	433843.720	8.737
173241.820	433844.171	8.630
173241.920	433844.569	8.809
173240.633	433835.315	18.101
173240.720	433835.677	18.225
173240.217	433838.216	8.687
173240.309	433838.631	8.766
173240.405	433839.040	8.887
173240.474	433839.491	8.674
173240.568	433839.902	8.779
173240.653	433840.331	8.759
173240.732	433840.770	8.661
173240.827	433841.181	8.774
173240.907	433841.620	8.691
173240.994	433842.047	8.699
173241.086	433842.464	8.769
173241.166	433842.909	8.674
173241.262	433843.318	8.797
173241.348	433843.752	8.776
173241.440	433844.170	8.845
173241.520	433844.621	8.739
173241.609	433845.051	8.754
173241.691	433845.500	8.673
173241.786	433845.915	8.771
173241.867	433846.372	8.666
173239.209	433834.857	9.046
173239.871	433834.816	15.334
173239.354	433835.718	8.773
173239.533	433836.553	8.867
173240.409	433836.125	17.904
173239.720	433837.379	9.050
173239.786	433837.823	8.827
173239.868	433838.251	8.785
173239.955	433838.672	8.805
173240.035	433839.104	8.737
173240.122	433839.526	8.752
173240.202	433839.961	8.680
173240.288	433840.387	8.679
173240.379	433840.806	8.730
173240.461	433841.241	8.674
173240.545	433841.673	8.641
173240.636	433842.092	8.699
173240.719	433842.529	8.650
173240.809	433842.950	8.703
173240.899	433843.374	8.738
173240.989	433843.796	8.785
173241.073	433844.235	8.736
173241.163	433844.659	8.778
173241.247	433845.102	8.724
173241.333	433845.540	8.702
173241.427	433845.956	8.790
173241.510	433846.407	8.714
173241.601	433846.832	8.768
173241.689	433847.271	8.756
173241.779	433847.702	8.785
173241.869	433848.136	8.806
173238.820	433834.895	9.015
173239.962	433836.228	17.208
173239.310	433837.440	8.790
173239.384	433837.876	8.667
173239.482	433838.284	8.803
173239.560	433838.717	8.724
173239.640	433839.150	8.647
173239.730	433839.569	8.701
173239.821	433839.985	8.767
173239.919	433840.391	8.914
173239.982	433840.857	8.619
173240.069	433841.283	8.633
173240.159	433841.702	8.688
173240.256	433842.109	8.825
173240.333	433842.557	8.698
173240.419	433842.989	8.681
173240.504	433843.423	8.657
173240.596	433843.841	8.734
173240.680	433844.279	8.695
173240.772	433844.699	8.756
173240.859	433845.133	8.751
173240.950	433845.557	8.798
173241.037	433845.991	8.798
173241.123	433846.431	8.771
173241.210	433846.870	8.756
173241.289	433847.340	8.607
173241.383	433847.759	8.695
173241.477	433848.179	8.775
173241.570	433848.599	8.857
173241.652	433849.070	8.728
173241.733	433849.548	8.583
173241.839	433849.913	8.895
173241.917	433850.415	8.667
173238.427	433834.936	8.704
173238.539	433835.336	8.994
173238.687	433836.196	8.766
173238.771	433836.619	8.754
173238.946	433837.458	8.807
173239.049	433837.859	9.011
173239.118	433838.302	8.820
173239.192	433838.741	8.681
173239.275	433839.169	8.653
173239.359	433839.597	8.628
173239.448	433840.017	8.674
173239.531	433840.448	8.634
173239.630	433840.851	8.803
173239.709	433841.291	8.708
173239.798	433841.712	8.753
173239.882	433842.144	8.722
173239.963	433842.584	8.654
173240.051	433843.011	8.667
173240.151	433843.410	8.849
173240.221	433843.882	8.611
173240.311	433844.305	8.660
173240.394	433844.747	8.604
173240.487	433845.167	8.678
173240.579	433845.585	8.753
173240.667	433846.017	8.763
173240.745	433846.485	8.609
173240.846	433846.878	8.809
173240.928	433847.335	8.718
173241.022	433847.753	8.806
173241.101	433848.224	8.662
173241.196	433848.641	8.763
173241.278	433849.112	8.635
173241.370	433849.540	8.693
173241.458	433849.988	8.675
173241.546	433850.443	8.632
173241.642	433850.856	8.755
173241.815	433851.789	8.613
173241.908	433852.223	8.666
173238.035	433834.965	8.703
173238.120	433835.386	8.705
173238.290	433836.229	8.705
173238.376	433836.651	8.713
173238.457	433837.077	8.674
173238.574	433837.463	9.044
173238.615	433837.939	8.523
173238.716	433838.342	8.719
173238.798	433838.770	8.679
173238.884	433839.195	8.681
173238.971	433839.618	8.695
173239.054	433840.047	8.662
173239.137	433840.477	8.631
173239.227	433840.895	8.692
173239.312	433841.325	8.676
173239.397	433841.754	8.662
173239.483	433842.183	8.660
173239.572	433842.605	8.700
173239.657	433843.037	8.684
173239.733	433843.493	8.531
173239.831	433843.896	8.696
173239.921	433844.320	8.736
173240.001	433844.770	8.640
173240.089	433845.200	8.655
173240.182	433845.619	8.731
173240.258	433846.087	8.564
173240.348	433846.516	8.596
173240.522	433847.397	8.568
173240.614	433847.822	8.627
173240.702	433848.261	8.629
173240.795	433848.686	8.691
173240.883	433849.130	8.679
173240.980	433849.537	8.824
173241.064	433850.001	8.739
173241.152	433850.448	8.724
173241.239	433850.909	8.664
173241.333	433851.333	8.750
173241.418	433851.806	8.656
173241.509	433852.253	8.661
173241.597	433852.720	8.602
173241.687	433853.178	8.583
173241.783	433853.596	8.701
173241.873	433854.057	8.678
173237.676	433834.998	8.752
173237.756	433835.423	8.704
173237.841	433835.845	8.697
173237.947	433836.247	8.942
173238.009	433836.690	8.692
173238.093	433837.114	8.673
173238.186	433837.527	8.775
173238.253	433837.972	8.562
173238.342	433838.391	8.609
173238.433	433838.808	8.678
173238.524	433839.224	8.749
173238.604	433839.657	8.684
173238.679	433840.099	8.552
173238.778	433840.503	8.719
173238.858	433840.939	8.651
173238.938	433841.377	8.576
173239.031	433841.791	8.670
173239.112	433842.230	8.600
173239.198	433842.657	8.610
173239.290	433843.075	8.682
173239.375	433843.508	8.668
173239.469	433843.921	8.764
173239.550	433844.367	8.685
173239.636	433844.798	8.687
173239.714	433845.259	8.545
173239.808	433845.672	8.651
173239.898	433846.099	8.689
173239.983	433846.540	8.662
173240.076	433846.961	8.735
173240.162	433847.403	8.713
173240.248	433847.847	8.683
173240.421	433848.741	8.622
173240.512	433849.171	8.667
173240.600	433849.616	8.657
173240.684	433850.083	8.563
173240.774	433850.522	8.587
173240.867	433850.950	8.652
173240.956	433851.405	8.623
173241.135	433852.308	8.602
173241.233	433852.713	8.763
173241.319	433853.191	8.667
173241.412	433853.632	8.709
173241.499	433854.113	8.619
173241.599	433854.510	8.808
173241.686	433854.999	8.704
173241.783	433855.413	8.841
173241.874	433855.885	8.800
173237.294	433835.031	8.750
173237.378	433835.453	8.741
173237.469	433835.868	8.815
173237.540	433836.302	8.672
173237.630	433836.719	8.729
173237.711	433837.145	8.690
173237.806	433837.557	8.802
173237.882	433837.989	8.708
173237.970	433838.409	8.745
173238.049	433838.841	8.675
173238.143	433839.252	8.786
173238.225	433839.682	8.741
173238.310	433840.106	8.747
173238.388	433840.544	8.657
173238.479	433840.961	8.727
173238.557	433841.403	8.622
173238.644	433841.828	8.638
173238.733	433842.249	8.685
173238.818	433842.679	8.676
173238.895	433843.129	8.551
173238.985	433843.552	8.596
173239.076	433843.972	8.662
173239.157	433844.418	8.584
173239.251	433844.830	8.694
173239.343	433845.249	8.767
173239.432	433845.673	8.814
173239.517	433846.113	8.784
173239.598	433846.569	8.678
173239.771	433847.447	8.660
173239.863	433847.870	8.728
173239.941	433848.346	8.565
173240.041	433848.740	8.764
173240.122	433849.212	8.634
173240.214	433849.640	8.692
173240.304	433850.080	8.704
173240.564	433851.452	8.571
173240.658	433851.875	8.660
173240.745	433852.342	8.597
173240.837	433852.782	8.634
173240.930	433853.222	8.672
173241.108	433854.150	8.604
173241.206	433854.559	8.756
173241.297	433855.021	8.738
173241.384	433855.514	8.627
173241.480	433855.944	8.719
173241.568	433856.436	8.624
173241.667	433856.848	8.778
173241.757	433857.339	8.697
173241.850	433857.802	8.705
173241.944	433858.269	8.706
173237.002	433835.491	8.590
173237.098	433835.904	8.713
173237.182	433836.326	8.709
173237.262	433836.753	8.657
173237.344	433837.178	8.638
173237.435	433837.594	8.710
173237.520	433838.017	8.715
173237.611	433838.433	8.782
173237.685	433838.870	8.662
173237.772	433839.292	8.684
173237.854	433839.721	8.648
173237.935	433840.154	8.596
173238.035	433840.555	8.782
173238.110	433840.999	8.655
173238.200	433841.418	8.708
173238.285	433841.846	8.703
173238.364	433842.288	8.613
173238.453	433842.709	8.663
173238.542	433843.132	8.705
173238.616	433843.591	8.533
173238.714	433843.994	8.698
173238.793	433844.443	8.599
173238.880	433844.875	8.602
173238.966	433845.309	8.597
173239.058	433845.728	8.672
173239.146	433846.159	8.691
173239.226	433846.619	8.576
173239.314	433847.052	8.591
173239.406	433847.476	8.656
173239.499	433847.894	8.743
173239.578	433848.366	8.599
173239.678	433848.758	8.807
173239.758	433849.234	8.659
173239.843	433849.688	8.610
173239.933	433850.129	8.622
173240.462	433852.855	8.475
173240.561	433853.257	8.648
173240.647	433853.740	8.545
173240.743	433854.162	8.656
173240.834	433854.621	8.645
173240.930	433855.041	8.761
173241.016	433855.540	8.631
173241.110	433855.986	8.675
173241.199	433856.472	8.599
173241.291	433856.941	8.582
173241.385	433857.391	8.625
173241.477	433857.867	8.595
173241.572	433858.325	8.624
173241.666	433858.793	8.628
173241.763	433859.234	8.709
173241.857	433859.717	8.681
173236.608	433835.541	8.459
173236.695	433835.962	8.483
173236.767	433836.397	8.350
173236.872	433836.801	8.576
173236.962	433837.218	8.636
173237.043	433837.645	8.599
173237.136	433838.059	8.693
173237.235	433838.464	8.869
173237.302	433838.912	8.651
173237.381	433839.344	8.583
173237.471	433839.762	8.647
173237.556	433840.187	8.653
173237.627	433840.637	8.474
173237.734	433841.027	8.742
173237.806	433841.478	8.577
173237.903	433841.883	8.731
173237.986	433842.315	8.700
173238.068	433842.752	8.651
173238.151	433843.189	8.604
173238.238	433843.617	8.619
173238.340	433844.007	8.853
173238.419	433844.455	8.754
173238.502	433844.896	8.708
173238.584	433845.343	8.634
173238.677	433845.756	8.739
173238.767	433846.183	8.777
173238.847	433846.637	8.682
173238.925	433847.106	8.530
173239.014	433847.536	8.566
173239.362	433849.313	8.501
173239.453	433849.746	8.540
173239.551	433850.146	8.716
173239.628	433850.646	8.498
173239.715	433851.103	8.457
173239.990	433852.415	8.580
173240.080	433852.864	8.587
173240.172	433853.307	8.617
173240.257	433853.796	8.495
173240.350	433854.232	8.558
173240.440	433854.697	8.528
173240.535	433855.131	8.606
173240.628	433855.579	8.638
173240.719	433856.040	8.635
173240.810	433856.514	8.596
173240.906	433856.945	8.693
173240.996	433857.433	8.622
173241.086	433857.929	8.536
173241.186	433858.334	8.716
173241.278	433858.822	8.663
173241.369	433859.317	8.594
173241.466	433859.763	8.669
173241.561	433860.239	8.662
173241.659	433860.678	8.760
173236.462	433834.949	11.696
173236.494	433835.394	11.160
173236.312	433836.027	8.263
173236.404	433836.445	8.339
173236.497	433836.860	8.436
173236.585	433837.281	8.477
173236.684	433837.688	8.648
173236.761	433838.121	8.554
173236.855	433838.533	8.670
173236.952	433838.940	8.818
173237.007	433839.406	8.464
173237.095	433839.828	8.498
173237.176	433840.261	8.445
173237.352	433840.535	9.590
173237.350	433841.109	8.494
173237.433	433841.542	8.458
173237.522	433841.963	8.514
173237.604	433842.400	8.463
173237.710	433842.785	8.739
173237.787	433843.234	8.624
173237.878	433843.653	8.688
173237.957	433844.100	8.597
173238.224	433845.374	8.722
173238.395	433846.248	8.689
173238.484	433846.675	8.730
173238.570	433847.115	8.715
173238.670	433847.507	8.917
173238.740	433848.008	8.634
173238.823	433848.462	8.568
173238.915	433848.888	8.630
173238.996	433849.358	8.511
173239.173	433850.243	8.522
173239.267	433850.664	8.614
173239.536	433851.997	8.643
173239.609	433852.536	8.320
173239.710	433852.929	8.530
173239.796	433853.400	8.463
173239.882	433853.884	8.361
173239.986	433854.255	8.644
173240.076	433854.714	8.633
173240.164	433855.197	8.549
173240.260	433855.622	8.657
173240.347	433856.113	8.559
173240.444	433856.541	8.663
173240.539	433856.981	8.732
173240.626	433857.491	8.595
173240.720	433857.945	8.631
173240.817	433858.376	8.735
173240.906	433858.894	8.597
173240.999	433859.373	8.576
173241.096	433859.812	8.669
173241.191	433860.281	8.681
173241.284	433860.780	8.621
173241.639	433857.798	17.560
173241.730	433859.852	14.559
173236.098	433834.982	11.853
173235.845	433835.648	8.218
173235.915	433836.085	8.053
173236.004	433836.506	8.109
173236.090	433836.931	8.117
173236.219	433837.310	8.624
173236.508	433837.502	10.986
173236.576	433837.929	10.832
173236.649	433839.419	8.719
173236.704	433839.888	8.357
173236.861	433840.765	8.195
173237.073	433841.546	8.733
173237.305	433842.881	8.412
173237.399	433843.292	8.533
173237.487	433843.718	8.558
173237.578	433844.136	8.634
173237.666	433844.563	8.664
173238.189	433847.154	8.733
173238.356	433848.054	8.622
173238.443	433848.497	8.604
173238.705	433849.826	8.586
173238.799	433850.245	8.685
173238.887	433850.693	8.670
173238.969	433851.167	8.561
173239.156	433852.020	8.718
173239.234	433852.529	8.501
173239.420	433853.394	8.634
173239.511	433853.846	8.637
173239.591	433854.362	8.432
173239.687	433854.787	8.536
173239.783	433855.211	8.642
173239.874	433855.669	8.646
173239.968	433856.111	8.700
173240.056	433856.600	8.614
173240.151	433857.044	8.673
173240.241	433857.522	8.630
173240.332	433858.006	8.581
173240.429	433858.433	8.695
173240.522	433858.911	8.670
173240.615	433859.393	8.639
173240.710	433859.852	8.676
173240.806	433860.308	8.726
173240.907	433860.696	8.955
173241.276	433857.529	18.369
173241.623	433859.085	18.722
173235.779	433834.980	12.267
173235.457	433835.698	7.877
173235.660	433836.519	8.254
173235.710	433836.978	7.865
173236.136	433837.542	10.834
173236.225	433837.946	10.917
173236.298	433838.370	10.804
173236.356	433838.816	10.516
173236.321	433839.949	8.066
173237.050	433843.294	8.666
173237.315	433844.565	8.786
173238.520	433850.739	8.586
173238.609	433851.186	8.584
173239.326	433854.796	8.586
173239.409	433855.312	8.396
173239.507	433855.722	8.553
173239.598	433856.190	8.531
173239.691	433856.639	8.568
173239.784	433857.096	8.589
173239.875	433857.568	8.566
173239.972	433857.993	8.687
173240.066	433858.457	8.697
173240.155	433858.965	8.587
173240.250	433859.417	8.641
173240.345	433859.882	8.659
173240.439	433860.356	8.661
173240.533	433860.841	8.638
173235.067	433835.742	7.725
173235.158	433836.164	7.798
173235.635	433837.210	10.343
173235.739	433837.600	10.593
173235.863	433837.963	11.082
173235.910	433838.418	10.672
173235.955	433838.882	10.235
173236.085	433839.230	10.810
173236.133	433839.696	10.388
173236.507	433840.724	11.990
173236.580	433841.148	11.893
173236.582	433841.716	10.841
173236.764	433843.740	8.775
173236.962	433843.892	10.355
173237.541	433845.524	12.766
173238.940	433854.855	8.505
173239.040	433855.247	8.716
173239.123	433855.758	8.548
173239.212	433856.238	8.487
173239.305	433856.691	8.516
173239.398	433857.147	8.537
173239.492	433857.591	8.598
173239.585	433858.051	8.615
173239.677	433858.535	8.569
173239.770	433859.004	8.572
173239.866	433859.449	8.644
173239.959	433859.922	8.644
173240.055	433860.374	8.702
173240.147	433860.884	8.614
173234.941	433835.136	11.190
173235.076	433835.503	11.777
173234.776	433836.231	7.589
173234.854	433836.665	7.516
173234.936	433837.096	7.485
173235.471	433838.048	10.755
173235.641	433838.865	10.839
173235.740	433839.253	11.047
173235.665	433840.461	8.079
173236.232	433841.167	12.119
173236.278	433843.441	8.298
173236.405	433843.775	8.874
173236.492	433844.198	8.911
173236.673	433844.381	10.275
173237.083	433845.853	11.397
173238.469	433852.519	12.039
173238.567	433854.913	8.487
173238.659	433855.359	8.526
173238.749	433855.823	8.511
173238.841	433856.278	8.527
173238.934	433856.728	8.565
173239.026	433857.194	8.557
173239.116	433857.676	8.506
173239.208	433858.137	8.523
173239.304	433858.575	8.609
173239.399	433859.027	8.659
173239.487	433859.547	8.524
173239.583	433859.999	8.580
173239.680	433860.435	8.686
173239.777	433860.877	8.775
173240.632	433860.740	17.104
173234.321	433835.854	7.674
173234.391	433836.294	7.509
173234.465	433836.732	7.396
173234.548	433837.163	7.375
173234.851	433837.361	9.875
173234.999	433837.704	10.631
173235.246	433838.942	10.660
173235.843	433841.238	12.021
173235.948	433841.602	12.330
173235.974	433842.123	11.606
173236.095	433842.452	12.136
173235.883	433843.528	8.121
173236.115	433843.614	10.152
173236.302	433844.408	10.442
173236.736	433845.798	11.955
173236.826	433846.192	12.071
173237.184	433847.770	12.507
173237.434	433849.027	12.524
173238.087	433854.533	8.433
173238.184	433854.943	8.585
173238.268	433855.445	8.443
173238.360	433855.894	8.475
173238.454	433856.334	8.539
173238.544	433856.806	8.510
173238.637	433857.253	8.560
173238.728	433857.729	8.527
173238.821	433858.187	8.554
173238.914	433858.644	8.583
173239.008	433859.106	8.606
173239.103	433859.555	8.668
173239.196	433860.034	8.649
173239.291	433860.494	8.689
173239.380	433861.025	8.545
173239.924	433858.647	18.124
173240.185	433859.832	18.373
173240.350	433860.794	18.146
173234.050	433834.883	10.364
173234.061	433836.321	7.785
173234.129	433836.763	7.602
173234.222	433837.182	7.710
173234.451	433837.457	9.357
173234.374	433838.057	7.516
173234.749	433838.137	10.911
173234.875	433839.010	10.480
173234.943	433839.447	10.303
173234.986	433839.923	9.821
173234.885	433840.638	7.533
173234.995	433841.027	7.849
173235.584	433841.663	12.239
173235.710	433841.979	12.846
173235.500	433843.634	7.776
173235.758	433843.659	10.171
173235.686	433844.469	7.976
173235.874	433845.298	8.205
173236.326	433845.340	12.408
173236.879	433846.899	14.739
173237.194	433849.334	13.179
173237.813	433855.060	8.365
173237.912	433855.461	8.547
173238.001	433855.928	8.523
173238.091	433856.396	8.501
173238.183	433856.849	8.529
173238.272	433857.334	8.465
173238.369	433857.753	8.603
173238.457	433858.256	8.497
173238.551	433858.707	8.545
173238.643	433859.183	8.530
173238.735	433859.666	8.499
173238.830	433860.122	8.546
173238.922	433860.607	8.521
173233.575	433834.988	9.277
173233.723	433835.360	9.982
173233.565	433835.962	7.360
173233.670	433836.373	7.593
173233.737	433836.817	7.400
173234.341	433838.216	10.511
173234.390	433838.671	10.131
173234.612	433838.897	11.813
173234.657	433839.356	11.388
173234.748	433840.292	10.506
173234.805	433840.751	10.187
173234.696	433841.511	7.738
173235.139	433841.272	12.381
173235.169	433841.779	11.723
173235.332	433842.022	12.813
173235.384	433844.973	7.806
173237.288	433851.175	14.280
173237.396	433852.357	13.101
173237.436	433855.090	8.389
173237.528	433855.533	8.438
173237.620	433855.982	8.470
173237.713	433856.426	8.525
173237.804	433856.891	8.515
173237.892	433857.379	8.441
173237.988	433857.805	8.560
173238.083	433858.246	8.634
173238.170	433858.756	8.512
173238.264	433859.212	8.554
173238.359	433859.661	8.616
173238.450	433860.165	8.532
173238.542	433860.653	8.497
173233.268	433835.001	9.752
173233.149	433835.561	7.585
173233.295	433836.436	7.332
173233.404	433836.842	7.616
173233.937	433837.312	11.792
173233.624	433838.163	7.242
173233.742	433838.554	7.634
173234.168	433838.545	11.694
173234.251	433838.950	11.722
173234.270	433839.448	10.970
173234.473	433839.675	12.476
173234.408	433840.314	10.671
173235.003	433842.014	13.146
173234.743	433843.777	7.396
173235.101	433845.493	7.591
173235.195	433845.910	7.705
173236.087	433847.196	13.778
173236.265	433848.706	12.648
173236.369	433849.825	11.546
173237.106	433851.997	14.490
173237.183	433852.450	14.379
173237.167	433855.604	8.350
173237.260	433856.047	8.402
173237.351	433856.503	8.418
173237.448	433856.919	8.560
173237.539	433857.382	8.563
173237.649	433857.678	9.059
173237.727	433858.264	8.707
173237.812	433858.794	8.529
173237.904	433859.273	8.505
173237.996	433859.749	8.492
173238.092	433860.195	8.567
173238.185	433860.669	8.570
173232.703	433835.174	7.702
173232.728	433835.643	7.066
173232.821	433836.067	7.157
173232.913	433836.490	7.240
173233.035	433836.885	7.664
173233.565	433837.854	10.899
173233.514	433838.425	9.347
173233.761	433838.634	11.305
173233.899	433838.967	11.997
173233.975	433839.379	11.957
173234.110	433839.703	12.633
173234.073	433840.295	11.183
173234.004	433840.964	9.274
173234.225	433841.707	9.998
173234.195	433842.954	7.388
173234.289	433843.372	7.498
173235.548	433846.420	13.791
173235.664	433847.408	13.046
173235.801	433847.610	13.977
173235.620	433849.851	8.084
173235.991	433849.076	13.048
173236.561	433851.203	14.507
173236.649	433851.586	14.631
