238206.18998718 739614.74000549 279.29998779 -2045.000000
238207.12999010 739614.40000916 279.00000000 -2046.000000
238207.08000183 739614.75999451 279.01998901 -2045.000000
238206.43998718 739615.43000793 279.09002686 -2046.000000
238206.56999207 739615.86000061 279.09002686 -2045.000000
238207.58000183 739615.53001404 279.76000977 -2046.000000
238197.56999207 739605.52000427 280.06997681 -2046.000000
238195.84001207 739600.25001526 282.51998901 -2046.000000
238195.21000719 739600.19999695 281.96002197 -2045.000000
238195.21000719 739601.05000305 280.89999390 -2046.000000
238195.66999817 739600.71998596 282.91998291 -2046.000000
238197.12999010 739601.75001526 282.46002197 -2046.000000
238196.41999793 739601.12998962 281.79998779 -2046.000000
238197.97999597 739601.08000183 280.23001099 -2046.000000
238197.88999891 739600.21000671 281.01998901 -2046.000000
238197.80000305 739601.13999939 281.47000122 -2046.000000
238197.37000990 739601.71000671 281.47000122 -2046.000000
238197.96998596 739601.75001526 281.93997192 -2046.000000
238198.25001502 739601.69999695 281.08001709 -2046.000000
238199.91999800 739601.12998962 280.23999023 -2046.000000
238198.40998805 739600.22999573 281.16998291 -2046.000000
238198.78001404 739600.72999573 281.76998901 -2045.000000
238199.43998700 739600.25999451 281.38000488 -2046.000000
238199.09999102 739600.68998718 281.06002808 -2046.000000
238199.21998602 739601.16999817 281.31997681 -2046.000000
238197.78001404 739602.13999939 281.14999390 -2046.000000
238197.37000990 739602.15000916 281.48999023 -2046.000000
238197.00001502 739602.16999817 281.90997314 -2046.000000
238197.63999891 739601.21000671 282.81002808 -2046.000000
238196.83000207 739600.27000427 282.60000610 -2046.000000
238196.41999793 739600.28001404 282.88000488 -2045.000000
238196.56001306 739600.72999573 282.56997681 -2046.000000
238197.18998694 739600.25001526 282.09002686 -2046.000000
238197.59001207 739600.75001526 282.84002686 -2046.000000
238197.09001207 739601.18000793 282.53997803 -2046.000000
238194.62000990 739607.87998962 280.38000488 -2046.000000
238196.86000109 739607.00001526 281.31002808 -2045.000000
238196.09001207 739607.46000671 281.66998291 -2045.000000
238197.90000892 739606.09999084 280.48001099 -2046.000000
238197.31999207 739606.47999573 280.36001587 -2046.000000
238197.59001207 739606.96000671 280.33001709 -2046.000000
238196.19999695 739607.93998718 280.83001709 -2046.000000
238197.21000695 739607.40998840 280.34002686 -2045.000000
238197.06999207 739607.94999695 280.43997192 -2045.000000
238197.77000403 739607.43998718 280.61999512 -2045.000000
238197.06001306 739606.11000061 281.01000977 -2045.000000
238198.65998805 739607.44999695 280.25000000 -2046.000000
238198.15998805 739607.00001526 280.68002319 -2046.000000
238198.09999096 739607.99000549 280.63998413 -2045.000000
238207.91999817 739604.81999207 280.39999390 -2045.000000
238207.90998793 739601.34999084 281.21002197 -2043.000000
238206.66999817 739600.40000916 281.22000122 -2042.000000
238207.61000109 739600.41999817 281.13998413 -2042.000000
238207.15000916 739600.40000916 281.20001221 -2043.000000
238207.37999010 739600.87998962 281.25000000 -2043.000000
238207.84999084 739600.87998962 281.18997192 -2043.000000
238192.25999498 739612.59001160 286.38000488 -2046.000000
238192.22999620 739610.50001526 283.81002808 -2046.000000
238195.99000502 739608.00999451 281.93997192 -2046.000000
238195.78001404 739608.75001526 280.33001709 -2046.000000
238195.43998718 739609.16999817 280.27999878 -2045.000000
238195.06999207 739609.18000793 280.75000000 -2046.000000
238196.37000990 739609.18998718 280.10000610 -2045.000000
238197.02000403 739609.25001526 280.71002197 -2046.000000
238198.37001002 739608.37001038 280.38998413 -2046.000000
238198.18998694 739608.83000183 280.22000122 -2045.000000
238198.66999805 739608.03001404 280.98999023 -2045.000000
238198.18998694 739611.40000916 280.51000977 -2045.000000
238198.90000904 739610.97999573 280.96002197 -2045.000000
238199.74000499 739610.97999573 280.43997192 -2045.000000
238199.59001201 739610.56001282 280.23001099 -2045.000000
238199.31999201 739610.97999573 280.71002197 -2046.000000
238199.18000799 739610.56001282 280.53997803 -2046.000000
238199.65000901 739611.46000671 280.51998901 -2045.000000
238199.06001300 739611.71000671 280.61999512 -2046.000000
238199.56999201 739611.74000549 280.72000122 -2045.000000
238192.02000380 739612.08000183 283.68002319 -2045.000000
238192.56999207 739615.93000793 281.08001709 -2045.000000
238193.34001207 739614.93998718 281.14999390 -2045.000000
238193.50999498 739615.37001038 281.31002808 -2043.000000
238193.94999695 739615.37998962 281.11999512 -2043.000000
238193.11000109 739615.96998596 281.23001099 -2043.000000
238193.12000990 739615.65000916 281.14999390 -2044.000000
238193.65998793 739615.68998718 281.38000488 -2042.000000
238194.56001282 739615.71000671 281.08001709 -2044.000000
238194.09999084 739615.69999695 281.18002319 -2043.000000
238192.27000380 739609.86000061 286.54998779 -2045.000000
238192.46998596 739611.72999573 285.31997681 -2045.000000
238192.38999891 739610.90000916 284.04998779 -2045.000000
238192.09001207 739610.93998718 284.78997803 -2046.000000
238192.33000183 739611.38999939 284.25000000 -2046.000000
238192.03999281 739611.41999817 284.98999023 -2046.000000
238192.06001282 739610.56001282 285.04998779 -2045.000000
238192.03001404 739611.83000183 287.38000488 -2045.000000
238192.00001478 739610.18998718 286.78997803 -2045.000000
238192.06999207 739612.19999695 285.73999023 -2045.000000
238200.25001499 739611.00001526 280.56002808 -2045.000000
238200.21000700 739610.62001038 280.78997803 -2046.000000
238173.83000183 739621.21998596 282.28997803 -2046.000000
238173.31001282 739621.18000793 282.20001221 -2046.000000
238164.84001160 739621.41999817 277.85000610 -2044.000000
238160.50999451 739617.37998962 277.90997314 -2045.000000
238160.86000061 739617.09001160 277.91998291 -2045.000000
238161.53999329 739616.28001404 277.85000610 -2045.000000
238161.09001160 739616.81999207 277.86999512 -2045.000000
238161.59999084 739616.84999084 277.86999512 -2044.000000
238161.55000305 739616.53001404 277.88000488 -2045.000000
238160.97999573 739617.63999939 277.95001221 -2045.000000
238161.52000427 739617.43998718 277.90997314 -2044.000000
238161.03001404 739617.40998840 277.95001221 -2045.000000
238161.37001038 739617.12001038 277.93002319 -2045.000000
238161.87001038 739617.15000916 277.89999390 -2045.000000
238161.12001038 739617.94999695 277.91998291 -2045.000000
238161.49000549 739617.66999817 277.93997192 -2045.000000
238161.61000061 739617.97999573 277.89999390 -2045.000000
238161.99000549 739617.69999695 277.93997192 -2045.000000
238162.52000427 739617.47999573 277.88000488 -2045.000000
238162.53999329 739616.34001160 277.83001709 -2044.000000
238162.03999329 739616.31001282 277.84002686 -2045.000000
238162.62998962 739616.00999451 277.79998779 -2045.000000
238162.09999084 739616.87998962 277.88998413 -2045.000000
238162.05000305 739616.55000305 277.88000488 -2044.000000
238162.59999084 739616.90000916 277.88000488 -2044.000000
238162.55000305 739616.58000183 277.86001587 -2044.000000
238163.55000305 739616.40000916 277.83001709 -2044.000000
238163.03999329 739616.37001038 277.81002808 -2044.000000
238163.12001038 739616.03001404 277.75000000 -2043.000000
238163.62001038 739616.06001282 277.75000000 -2043.000000
238163.11000061 739616.93000793 277.86001587 -2045.000000
238163.06001282 739616.61000061 277.86999512 -2044.000000
238163.61000061 739616.96000671 277.85000610 -2045.000000
238163.55000305 739616.63999939 277.84002686 -2043.000000
238162.87001038 739617.21000671 277.88998413 -2045.000000
238162.00999451 739617.46000671 277.86999512 -2045.000000
238162.36000061 739617.18000793 277.88000488 -2045.000000
238162.49000549 739617.72999573 277.93997192 -2045.000000
238162.97999573 739617.75001526 277.90997314 -2045.000000
238163.86000061 739617.25999451 277.85000610 -2044.000000
238163.37998962 739617.24000549 277.90997314 -2045.000000
238163.49000549 739617.78001404 277.93002319 -2045.000000
238163.03001404 739617.52000427 277.90997314 -2045.000000
238163.53001404 739617.55000305 277.90997314 -2044.000000
238161.50999451 739618.18998718 277.90997314 -2045.000000
238162.68000793 739619.31001282 277.81997681 -2045.000000
238162.61000061 739618.03999329 277.86001587 -2045.000000
238162.11000061 739618.00999451 277.88000488 -2045.000000
238162.02000427 739618.21000671 277.91998291 -2045.000000
238162.50999451 739618.24000549 277.88000488 -2045.000000
238162.25999451 739618.75999451 277.89999390 -2045.000000
238162.06001282 739618.59001160 277.90997314 -2045.000000
238162.75001526 739618.78999329 277.86999512 -2045.000000
238162.56001282 739618.62001038 277.89999390 -2045.000000
238163.50999451 739618.30000305 277.85000610 -2045.000000
238163.03001404 739618.28001404 277.91998291 -2045.000000
238163.12998962 739618.08000183 277.89999390 -2045.000000
238163.62998962 739618.11000061 277.90997314 -2045.000000
238163.25001526 739618.83000183 277.86001587 -2045.000000
238163.06001282 739618.65000916 277.88998413 -2045.000000
238163.77000427 739618.86000061 277.86001587 -2045.000000
238163.56001282 739618.68998718 277.88998413 -2045.000000
238162.52000427 739619.08000183 277.83001709 -2045.000000
238162.96000671 739619.71000671 277.81997681 -2045.000000
238163.68998718 739619.37001038 277.83001709 -2045.000000
238163.19999695 739619.34001160 277.86001587 -2045.000000
238163.03001404 739619.12001038 277.85000610 -2044.000000
238163.53999329 739619.15000916 277.84002686 -2045.000000
238163.37001038 739619.90000916 277.85000610 -2045.000000
238163.46998596 739619.74000549 277.84002686 -2045.000000
238163.96998596 739619.77000427 277.83001709 -2045.000000
238163.87001038 739619.93998718 277.85000610 -2045.000000
238164.86000061 739617.31999207 277.85000610 -2043.000000
238164.59999084 739617.02000427 277.83001709 -2042.000000
238164.55000305 739616.44999695 277.79998779 -2043.000000
238164.03999329 739616.41999817 277.81002808 -2043.000000
238164.12001038 739616.09001160 277.75000000 -2043.000000
238164.62001038 739616.12001038 277.73001099 -2043.000000
238164.11000061 739616.99000549 277.85000610 -2043.000000
238164.06001282 739616.66999817 277.86001587 -2043.000000
238164.55000305 739616.68998718 277.81997681 -2043.000000
238165.59999084 739616.16999817 277.66998291 -2043.000000
238165.05000305 739616.46998596 277.76998901 -2042.000000
238165.12001038 739616.13999939 277.73999023 -2043.000000
238165.05000305 739616.71998596 277.81997681 -2043.000000
238165.53999329 739616.50001526 277.75000000 -2043.000000
238165.53001404 739616.74000549 277.76000977 -2042.000000
238164.36000061 739617.28999329 277.84002686 -2043.000000
238164.00001526 739617.81001282 277.93002319 -2044.000000
238164.02000427 739617.56999207 277.86999512 -2045.000000
238164.49000549 739617.84001160 277.91998291 -2045.000000
238164.97999573 739617.87001038 277.86001587 -2044.000000
238164.52000427 739617.59999084 277.86999512 -2044.000000
238165.84001160 739617.37001038 277.77999878 -2044.000000
238165.34001160 739617.34001160 277.78997803 -2043.000000
238165.09999084 739617.03999329 277.79998779 -2043.000000
238165.59001160 739617.06999207 277.76998901 -2043.000000
238165.47999573 739617.88999939 277.86001587 -2043.000000
238165.00999451 739617.62998962 277.81002808 -2043.000000
238165.96998596 739617.91999817 277.81997681 -2043.000000
238165.50001526 739617.65000916 277.78997803 -2043.000000
238166.58000183 739617.12001038 277.75000000 -2044.000000
238166.59001160 739616.21000671 277.61001587 -2045.000000
238166.09999084 739616.18998718 277.63998413 -2043.000000
238166.02000427 739616.77000427 277.71002197 -2043.000000
238166.02000427 739616.52000427 277.68997192 -2043.000000
238166.52000427 739616.80000305 277.72000122 -2043.000000
238166.52000427 739616.55000305 277.68002319 -2043.000000
238167.59999084 739616.27000427 277.64999390 -2044.000000
238167.09001160 739616.24000549 277.61999512 -2044.000000
238167.03001404 739616.83000183 277.73999023 -2044.000000
238167.03001404 739616.58000183 277.71002197 -2044.000000
238167.53001404 739616.86000061 277.75000000 -2044.000000
238167.53001404 739616.61000061 277.72000122 -2045.000000
238166.84001160 739617.41999817 277.73001099 -2044.000000
238166.34001160 739617.38999939 277.75000000 -2044.000000
238166.09001160 739617.09999084 277.76000977 -2043.000000
238166.47999573 739617.94999695 277.83001709 -2044.000000
238166.00001526 739617.68000793 277.77999878 -2041.000000
238166.96998596 739617.97999573 277.81002808 -2043.000000
238166.50001526 739617.71000671 277.76998901 -2043.000000
238166.99000549 739617.74000549 277.76000977 -2044.000000
238167.58000183 739617.18000793 277.72000122 -2045.000000
238167.34999084 739617.44999695 277.76998901 -2044.000000
238167.09001160 739617.15000916 277.76000977 -2044.000000
238167.50001526 739617.77000427 277.78997803 -2044.000000
238164.68998718 739619.43998718 277.81002808 -2045.000000
238164.52000427 739618.36000061 277.86999512 -2045.000000
238164.02000427 739618.34001160 277.88000488 -2045.000000
238164.12998962 739618.13999939 277.89999390 -2045.000000
238164.62001038 739618.15998840 277.86999512 -2044.000000
238164.28001404 739618.88999939 277.89999390 -2045.000000
238164.06999207 739618.71998596 277.88998413 -2045.000000
238164.56001282 739618.75001526 277.88000488 -2044.000000
238164.77000427 739618.91999817 277.86001587 -2045.000000
238165.50999451 739618.41999817 277.81997681 -2044.000000
238165.02000427 739618.40000916 277.86999512 -2045.000000
238165.11000061 739618.18998718 277.86001587 -2044.000000
238165.61000061 739618.21998596 277.85000610 -2043.000000
238165.06999207 739618.78001404 277.88998413 -2045.000000
238165.27000427 739618.94999695 277.86999512 -2044.000000
238165.56001282 739618.81001282 277.85000610 -2044.000000
238165.77000427 739618.97999573 277.86001587 -2045.000000
238164.53001404 739619.21000671 277.83001709 -2044.000000
238164.21000671 739619.40998840 277.86001587 -2045.000000
238164.03001404 739619.18000793 277.81997681 -2045.000000
238164.49000549 739619.81001282 277.86999512 -2045.000000
238164.37998962 739619.96998596 277.84002686 -2045.000000
238164.97999573 739619.83000183 277.81002808 -2045.000000
238165.53001404 739619.28001404 277.81997681 -2045.000000
238165.03999329 739619.25001526 277.85000610 -2044.000000
238165.19999695 739619.46998596 277.85000610 -2045.000000
238165.47999573 739619.87001038 277.81997681 -2045.000000
238165.97999573 739619.90000916 277.81002808 -2044.000000
238165.71000671 739619.50001526 277.85000610 -2045.000000
238166.53999329 739619.34001160 277.81997681 -2045.000000
238166.59999084 739618.28001404 277.81002808 -2044.000000
238166.11000061 739618.25001526 277.83001709 -2044.000000
238166.00999451 739618.44999695 277.79998779 -2043.000000
238166.50001526 739618.47999573 277.77999878 -2043.000000
238166.06001282 739618.84001160 277.86001587 -2044.000000
238166.56001282 739618.87001038 277.83001709 -2042.000000
238167.59001160 739618.34001160 277.78997803 -2043.000000
238167.09999084 739618.31001282 277.78997803 -2043.000000
238167.47999573 739618.00999451 277.83001709 -2043.000000
238167.05000305 739618.90000916 277.79998779 -2043.000000
238167.00999451 739618.50999451 277.81002808 -2044.000000
238167.55000305 739618.93000793 277.78997803 -2043.000000
238167.50001526 739618.53999329 277.77999878 -2044.000000
238166.75999451 739619.03999329 277.81997681 -2043.000000
238166.03001404 739619.31001282 277.81997681 -2043.000000
238166.25999451 739619.00999451 277.84002686 -2044.000000
238166.49000549 739619.93000793 277.83001709 -2044.000000
238166.19999695 739619.53001404 277.83001709 -2045.000000
238166.97999573 739619.96000671 277.79998779 -2044.000000
238166.69999695 739619.56999207 277.81997681 -2045.000000
238167.52000427 739619.40000916 277.76998901 -2043.000000
238167.02000427 739619.37001038 277.76998901 -2044.000000
238167.25001526 739619.06999207 277.79998779 -2043.000000
238167.75001526 739619.09999084 277.77999878 -2043.000000
238167.46998596 739619.99000549 277.78997803 -2043.000000
238167.18000793 739619.59999084 277.78997803 -2044.000000
238167.68000793 739619.62998962 277.77999878 -2043.000000
238163.55000305 739620.25001526 277.83001709 -2045.000000
238163.78999329 739620.49000549 277.81002808 -2045.000000
238164.84999084 739621.11000061 277.81002808 -2045.000000
238164.56001282 739620.31001282 277.84002686 -2045.000000
238164.06001282 739620.28001404 277.86001587 -2045.000000
238164.87998962 739620.00001526 277.84002686 -2045.000000
238164.38999939 739620.87998962 277.81002808 -2045.000000
238164.30000305 739620.53001404 277.86001587 -2045.000000
238164.90998840 739620.90000916 277.85000610 -2045.000000
238164.80000305 739620.56001282 277.81997681 -2045.000000
238165.56001282 739620.37998962 277.83001709 -2044.000000
238165.06001282 739620.34999084 277.81997681 -2045.000000
238165.37998962 739620.03999329 277.85000610 -2045.000000
238165.87001038 739620.06001282 277.83001709 -2045.000000
238165.40000916 739620.93000793 277.81002808 -2044.000000
238165.30000305 739620.59999084 277.83001709 -2045.000000
238165.91999817 739620.96998596 277.88000488 -2045.000000
238165.80000305 739620.62998962 277.84002686 -2045.000000
238164.37001038 739621.08000183 277.86001587 -2045.000000
238165.84999084 739621.49000549 277.86001587 -2045.000000
238165.34999084 739621.44999695 277.86001587 -2045.000000
238165.36000061 739621.15000916 277.81997681 -2044.000000
238165.87001038 739621.18000793 277.86001587 -2045.000000
238165.13999939 739621.75001526 277.85000610 -2044.000000
238165.63999939 739621.78001404 277.85000610 -2045.000000
238166.90998840 739621.03999329 277.83001709 -2045.000000
238166.56001282 739620.44999695 277.83001709 -2045.000000
238166.06999207 739620.40998840 277.83001709 -2044.000000
238166.38999939 739620.09001160 277.86001587 -2044.000000
238166.87998962 739620.12998962 277.85000610 -2044.000000
238166.28999329 739620.65998840 277.79998779 -2045.000000
238166.81001282 739620.69999695 277.85000610 -2045.000000
238167.96000671 739620.02000427 277.76000977 -2043.000000
238167.06999207 739620.47999573 277.83001709 -2045.000000
238167.37998962 739620.15998840 277.84002686 -2044.000000
238167.87001038 739620.18998718 277.81997681 -2043.000000
238167.30000305 739620.71998596 277.83001709 -2045.000000
238167.80000305 739620.75001526 277.81002808 -2045.000000
238167.56001282 739620.50999451 277.81997681 -2045.000000
238166.87998962 739621.24000549 277.84002686 -2045.000000
238166.40998840 739621.00999451 277.86001587 -2045.000000
238166.37001038 739621.21000671 277.86001587 -2045.000000
238166.12998962 739621.81999207 277.84002686 -2045.000000
238166.36000061 739621.52000427 277.88000488 -2045.000000
238166.65000916 739621.86000061 277.86999512 -2045.000000
238166.84999084 739621.55000305 277.86001587 -2045.000000
238167.87998962 739621.31001282 277.86001587 -2045.000000
238167.37998962 739621.28001404 277.83001709 -2045.000000
238167.40000916 739621.06999207 277.83001709 -2045.000000
238167.90998840 739621.11000061 277.85000610 -2044.000000
238167.12998962 739621.88999939 277.83001709 -2045.000000
238167.34999084 739621.58000183 277.86999512 -2044.000000
238167.62998962 739621.93000793 277.84002686 -2044.000000
238167.84999084 739621.62001038 277.86001587 -2044.000000
238165.61000061 739622.30000305 277.86999512 -2045.000000
238165.15998840 739622.00001526 277.89999390 -2045.000000
238165.65998840 739622.03999329 277.89999390 -2045.000000
238165.71998596 739622.53999329 277.81997681 -2044.000000
238166.90998840 739623.47999573 277.88000488 -2045.000000
238166.61000061 739622.37001038 277.85000610 -2044.000000
238166.12001038 739622.34001160 277.89999390 -2045.000000
238166.15000916 739622.06999207 277.86001587 -2045.000000
238166.65998840 739622.11000061 277.86999512 -2045.000000
238166.41999817 739622.93000793 277.86001587 -2045.000000
238166.22999573 739622.58000183 277.85000610 -2045.000000
238166.90998840 739622.96998596 277.84002686 -2045.000000
238166.72999573 739622.62001038 277.84002686 -2045.000000
238167.62001038 739622.44999695 277.88998413 -2045.000000
238167.12001038 739622.40998840 277.89999390 -2045.000000
238167.15998840 739622.13999939 277.89999390 -2045.000000
238167.65998840 739622.18000793 277.86999512 -2045.000000
238167.21998596 739622.65000916 277.79998779 -2044.000000
238167.72999573 739622.68998718 277.79998779 -2044.000000
238166.96000671 739623.21998596 277.86001587 -2045.000000
238166.46000671 739623.18000793 277.85000610 -2044.000000
238167.94999695 739623.28999329 277.84002686 -2045.000000
238167.46998596 739623.25999451 277.88998413 -2045.000000
238167.41999817 739623.00999451 277.84002686 -2045.000000
238167.91999817 739623.03999329 277.84002686 -2045.000000
238167.03999329 739623.72999573 277.78997803 -2045.000000
238167.38999939 739623.50999451 277.83001709 -2044.000000
238167.53999329 739623.77000427 277.81002808 -2045.000000
238167.90000916 739623.55000305 277.84002686 -2045.000000
238175.08000183 739620.00001526 279.83001709 -2045.000000
238168.06001282 739617.31001282 279.38000488 -2046.000000
238169.84999084 739617.59001160 277.76998901 -2045.000000
238168.09999084 739616.30000305 277.66998291 -2045.000000
238169.59999084 739616.99000549 277.96002197 -2046.000000
238171.00001526 739617.96998596 277.76998901 -2045.000000
238170.62001038 739616.43998718 277.72000122 -2045.000000
238170.19999695 739616.09001160 277.79998779 -2045.000000
238170.68998718 739616.11000061 277.73999023 -2045.000000
238170.55000305 739616.78001404 277.76998901 -2045.000000
238171.19999695 739616.15000916 277.78997803 -2046.000000
238168.50999451 739619.46000671 277.73999023 -2044.000000
238168.03999329 739618.96000671 277.76998901 -2046.000000
238168.02000427 739619.43000793 277.75000000 -2044.000000
238168.22999573 739619.12998962 277.76000977 -2044.000000
238168.16999817 739619.65998840 277.73999023 -2043.000000
238168.68000793 739619.68998718 277.76000977 -2044.000000
238169.24000549 739619.18998718 277.76000977 -2046.000000
238169.00001526 739619.49000549 277.71002197 -2044.000000
238169.15998840 739619.71998596 277.71002197 -2045.000000
238170.56999207 739619.12001038 277.88998413 -2046.000000
238170.96998596 739618.21998596 277.81002808 -2045.000000
238171.94999695 739618.28001404 277.76998901 -2045.000000
238171.46000671 739618.25001526 277.79998779 -2046.000000
238171.08000183 739618.55000305 277.73999023 -2046.000000
238171.96998596 739618.81001282 277.70001221 -2046.000000
238171.56999207 739618.56999207 277.71002197 -2046.000000
238171.74000549 739619.34001160 277.76998901 -2046.000000
238171.50999451 739619.16999817 277.72000122 -2046.000000
238171.97999573 739619.68000793 277.68002319 -2046.000000
238170.15000916 739616.88999939 279.86999512 -2045.000000
238175.03001404 739617.68998718 279.31997681 -2046.000000
238172.59999084 739617.46000671 277.78997803 -2045.000000
238172.62998962 739616.53999329 277.75000000 -2046.000000
238173.72999573 739616.00999451 277.73999023 -2046.000000
238173.19999695 739616.25999451 277.81997681 -2046.000000
238174.58000183 739617.00001526 277.91998291 -2045.000000
238174.74000549 739616.06999207 277.79998779 -2045.000000
238174.25001526 739616.03999329 277.81997681 -2045.000000
238175.13999939 739616.68998718 277.78997803 -2045.000000
238174.86000061 739617.88999939 277.81002808 -2045.000000
238174.36000061 739617.86000061 277.84002686 -2046.000000
238174.13999939 739617.56001282 277.93997192 -2046.000000
238175.06001282 739617.03001404 277.85000610 -2046.000000
238175.84999084 739617.93998718 277.81002808 -2046.000000
238172.68998718 739619.38999939 277.60000610 -2046.000000
238172.06999207 739618.61000061 277.73001099 -2046.000000
238173.46998596 739618.37001038 277.79998779 -2045.000000
238172.00999451 739619.19999695 277.71002197 -2045.000000
238172.94999695 739619.72999573 277.59002686 -2046.000000
238173.62001038 739619.99000549 277.59002686 -2046.000000
238174.97999573 739619.00001526 277.79998779 -2046.000000
238174.49000549 739618.18000793 277.76000977 -2045.000000
238174.59001160 739618.75001526 277.81997681 -2046.000000
238175.00999451 739618.21000671 277.86001587 -2046.000000
238175.06999207 739618.78001404 277.76998901 -2045.000000
238175.96998596 739618.50999451 277.86999512 -2046.000000
238175.53001404 739619.41999817 277.84002686 -2045.000000
238175.02000427 739619.37998962 277.76998901 -2045.000000
238175.47999573 739619.02000427 277.79998779 -2045.000000
238175.96998596 739619.05000305 277.77999878 -2045.000000
238175.21000671 739619.56001282 277.75000000 -2045.000000
238175.49000549 739619.88999939 277.73999023 -2044.000000
238175.71998596 739619.59001160 277.78997803 -2045.000000
238175.97999573 739619.91999817 277.73999023 -2045.000000
238174.94999695 739616.40998840 278.72000122 -2045.000000
238172.05000305 739618.94999695 279.72000122 -2046.000000
238171.96000671 739620.88999939 279.18997192 -2046.000000
238168.87001038 739621.37998962 277.79998779 -2043.000000
238168.86000061 739620.25001526 277.77999878 -2044.000000
238168.46000671 739620.06001282 277.75000000 -2043.000000
238168.36000061 739620.21998596 277.78997803 -2044.000000
238168.94999695 739620.09001160 277.73999023 -2043.000000
238168.28999329 739620.78001404 277.76998901 -2044.000000
238168.05000305 739620.53999329 277.77999878 -2043.000000
238168.78999329 739620.81999207 277.78997803 -2044.000000
238168.55000305 739620.58000183 277.78997803 -2043.000000
238169.93998718 739620.15000916 277.71002197 -2046.000000
238169.34999084 739620.28001404 277.76998901 -2045.000000
238169.28001404 739620.84999084 277.75000000 -2043.000000
238169.05000305 739620.61000061 277.77999878 -2044.000000
238169.55000305 739620.63999939 277.76000977 -2044.000000
238169.78001404 739620.87998962 277.73001099 -2044.000000
238168.90000916 739621.16999817 277.79998779 -2043.000000
238168.37001038 739621.34999084 277.84002686 -2045.000000
238168.40000916 739621.13999939 277.81002808 -2044.000000
238168.12998962 739621.96000671 277.83001709 -2045.000000
238168.34001160 739621.65000916 277.84002686 -2044.000000
238168.62998962 739621.99000549 277.79998779 -2045.000000
238168.84001160 739621.68998718 277.84002686 -2044.000000
238169.84999084 739621.43998718 277.77999878 -2043.000000
238169.36000061 739621.40998840 277.78997803 -2044.000000
238169.37998962 739621.19999695 277.76000977 -2044.000000
238169.87998962 739621.22999573 277.75000000 -2043.000000
238169.33000183 739621.71998596 277.79998779 -2043.000000
238169.84001160 739621.75001526 277.81002808 -2044.000000
238170.38999939 739621.27000427 277.76000977 -2043.000000
238170.03999329 739620.66999817 277.75000000 -2045.000000
238170.28001404 739620.90998840 277.73001099 -2045.000000
238171.34001160 739621.86000061 277.83001709 -2046.000000
238168.94999695 739623.36000061 277.84002686 -2044.000000
238168.65000916 739622.24000549 277.81002808 -2045.000000
238168.09999084 739622.47999573 277.83001709 -2044.000000
238168.15998840 739622.21000671 277.85000610 -2045.000000
238168.24000549 739622.72999573 277.84002686 -2045.000000
238168.72999573 739622.75999451 277.81997681 -2045.000000
238168.61000061 739622.52000427 277.85000610 -2045.000000
238169.65000916 739622.31001282 277.81002808 -2044.000000
238169.15998840 739622.28001404 277.84002686 -2045.000000
238169.13999939 739622.03001404 277.84002686 -2045.000000
238169.62001038 739622.06001282 277.78997803 -2045.000000
238169.22999573 739622.78999329 277.81997681 -2045.000000
238169.09999084 739622.55000305 277.84002686 -2045.000000
238169.72999573 739622.81999207 277.81002808 -2045.000000
238169.59999084 739622.59001160 277.85000610 -2045.000000
238168.90998840 739623.12001038 277.84002686 -2045.000000
238168.46000671 739623.33000183 277.85000610 -2045.000000
238168.40998840 739623.08000183 277.84002686 -2045.000000
238168.03999329 739623.81001282 277.81002808 -2045.000000
238168.40000916 739623.58000183 277.83001709 -2045.000000
238168.55000305 739623.84999084 277.81997681 -2045.000000
238168.88999939 739623.62001038 277.81997681 -2045.000000
238169.94999695 739623.43998718 277.81997681 -2045.000000
238169.44999695 739623.40000916 277.83001709 -2045.000000
238169.40000916 739623.15000916 277.83001709 -2044.000000
238169.90998840 739623.18998718 277.81002808 -2045.000000
238169.03999329 739623.88999939 277.78997803 -2044.000000
238169.40998840 739623.65998840 277.86001587 -2045.000000
238169.53999329 739623.91999817 277.78997803 -2045.000000
238169.88999939 739623.68998718 277.81002808 -2045.000000
238170.90998840 739623.25999451 277.81002808 -2045.000000
238170.13999939 739622.09999084 277.86001587 -2046.000000
238170.21000671 739622.84999084 277.76998901 -2044.000000
238170.09001160 739622.62001038 277.78997803 -2045.000000
238170.59999084 739622.65998840 277.83001709 -2046.000000
238171.09001160 739622.68998718 277.78997803 -2045.000000
238170.43998718 739623.46998596 277.81997681 -2044.000000
238170.40998840 739623.22999573 277.83001709 -2045.000000
238170.03999329 739623.96000671 277.81002808 -2045.000000
238170.40000916 739623.72999573 277.84002686 -2045.000000
238170.90998840 739623.77000427 277.86001587 -2045.000000
238170.93998718 739623.50999451 277.79998779 -2044.000000
238171.88999939 739623.33000183 277.76998901 -2044.000000
238171.37998962 739623.81001282 277.79998779 -2044.000000
238171.43998718 739623.55000305 277.83001709 -2044.000000
238171.87998962 739623.84001160 277.79998779 -2044.000000
238171.93000793 739623.58000183 277.79998779 -2045.000000
238171.71000671 739620.52000427 278.98999023 -2045.000000
238175.03999329 739620.62001038 279.88000488 -2046.000000
238173.72999573 739621.13999939 277.60000610 -2045.000000
238173.84001160 739621.50001526 277.63000488 -2044.000000
238174.74000549 739621.21000671 277.65997314 -2044.000000
238174.90000916 739620.46998596 277.61001587 -2045.000000
238174.00999451 739620.93000793 277.64999390 -2045.000000
238174.31001282 739620.59999084 277.65997314 -2044.000000
238174.50001526 739620.96000671 277.63998413 -2044.000000
238174.81999207 739620.63999939 277.70001221 -2044.000000
238175.63999939 739620.12001038 277.70001221 -2045.000000
238175.12998962 739620.09001160 277.66998291 -2045.000000
238175.34001160 739620.68000793 277.77999878 -2045.000000
238175.40998840 739620.50001526 277.64999390 -2045.000000
238175.02000427 739620.99000549 277.71002197 -2045.000000
238175.91999817 739620.53999329 277.73001099 -2045.000000
238175.83000183 739620.71000671 277.73999023 -2045.000000
238174.24000549 739621.16999817 277.63000488 -2044.000000
238174.34999084 739621.53001404 277.66998291 -2044.000000
238174.81999207 739621.78001404 277.70001221 -2046.000000
238174.84001160 739621.56999207 277.66998291 -2044.000000
238175.52000427 739621.03001404 277.75000000 -2044.000000
238175.25999451 739621.25001526 277.71002197 -2045.000000
238175.75999451 739621.28001404 277.73001099 -2045.000000
238175.31999207 739621.81001282 277.68002319 -2045.000000
238175.34999084 739621.59999084 277.68997192 -2044.000000
238175.81001282 739621.84999084 277.68997192 -2044.000000
238175.86000061 739621.63999939 277.72000122 -2044.000000
238172.38999939 739623.37001038 277.81002808 -2045.000000
238172.87001038 739623.91999817 277.77999878 -2043.000000
238172.37998962 739623.87998962 277.79998779 -2044.000000
238172.40998840 739623.62001038 277.76998901 -2045.000000
238173.87001038 739623.46998596 277.75000000 -2045.000000
238173.36000061 739623.94999695 277.77999878 -2043.000000
238173.43000793 739623.68998718 277.77999878 -2046.000000
238173.86000061 739623.99000549 277.76000977 -2046.000000
238173.90998840 739623.72999573 277.76000977 -2044.000000
238174.68998718 739623.18000793 277.73001099 -2044.000000
238174.09001160 739622.36000061 277.73001099 -2046.000000
238174.06001282 739622.88999939 277.73999023 -2045.000000
238174.56001282 739622.91999817 277.72000122 -2045.000000
238175.56999207 739622.46000671 277.70001221 -2044.000000
238175.28999329 739622.12998962 277.75000000 -2045.000000
238175.06999207 739622.43000793 277.68002319 -2044.000000
238175.78999329 739622.15998840 277.73999023 -2045.000000
238175.06001282 739622.96000671 277.75000000 -2045.000000
238175.09999084 739622.68000793 277.71002197 -2044.000000
238175.62001038 739622.71998596 277.76000977 -2045.000000
238174.18000793 739623.13999939 277.72000122 -2045.000000
238174.88999939 739623.56001282 277.84002686 -2046.000000
238175.56001282 739623.00001526 277.76000977 -2044.000000
238175.19999695 739623.21998596 277.77999878 -2045.000000
238175.68000793 739623.25001526 277.73001099 -2044.000000
238175.37001038 739623.59001160 277.78997803 -2044.000000
238175.84001160 739623.62001038 277.72000122 -2045.000000
238173.99000549 739623.00001526 279.26000977 -2046.000000
238173.90000916 739622.43000793 278.78997803 -2045.000000
238174.34999084 739623.62998962 279.47000122 -2046.000000
238174.05000305 739622.71000671 279.26000977 -2046.000000
238174.94999695 739623.93998718 279.65997314 -2045.000000
238174.90998840 739623.68000793 279.64999390 -2045.000000
238175.50001526 739623.97999573 279.86999512 -2046.000000
238167.93998718 739624.31001282 277.75000000 -2045.000000
238167.44999695 739624.27000427 277.78997803 -2045.000000
238167.33000183 739624.03001404 277.79998779 -2045.000000
238167.83000183 739624.06999207 277.81997681 -2045.000000
238167.88999939 739624.59001160 277.76000977 -2045.000000
238172.96998596 739629.40000916 277.63998413 -2044.000000
238168.71000671 739625.21998596 277.76998901 -2045.000000
238168.81001282 739625.49000549 277.73001099 -2044.000000
238168.93998718 739624.38999939 277.76998901 -2045.000000
238168.31001282 739624.09999084 277.76998901 -2045.000000
238168.43998718 739624.34999084 277.73999023 -2045.000000
238168.83000183 739624.13999939 277.77999878 -2045.000000
238168.40000916 739624.62998962 277.75000000 -2045.000000
238168.02000427 739624.84001160 277.73001099 -2045.000000
238168.53001404 739624.87998962 277.76998901 -2045.000000
238168.88999939 739624.66999817 277.73999023 -2045.000000
238169.93000793 739624.46000671 277.75000000 -2045.000000
238169.44999695 739624.43000793 277.76000977 -2044.000000
238169.31999207 739624.18000793 277.76998901 -2045.000000
238169.81999207 739624.21998596 277.76998901 -2045.000000
238169.02000427 739624.91999817 277.75000000 -2045.000000
238169.40000916 739624.71000671 277.78997803 -2045.000000
238169.88999939 739624.75001526 277.75000000 -2045.000000
238169.50999451 739624.96000671 277.72000122 -2045.000000
238169.69999695 739625.28999329 277.73001099 -2045.000000
238169.19999695 739625.25999451 277.75000000 -2045.000000
238169.24000549 739625.75999451 277.77999878 -2045.000000
238169.30000305 739625.53001404 277.72000122 -2045.000000
238169.71998596 739625.80000305 277.75000000 -2045.000000
238169.80000305 739625.56001282 277.71002197 -2045.000000
238170.52000427 739625.03999329 277.76998901 -2045.000000
238170.81999207 739624.28999329 277.76000977 -2045.000000
238170.31001282 739624.25001526 277.75000000 -2045.000000
238170.53999329 739624.00001526 277.81002808 -2045.000000
238170.40000916 739624.78999329 277.76998901 -2045.000000
238170.43000793 739624.50001526 277.76000977 -2045.000000
238170.88999939 739624.83000183 277.76000977 -2045.000000
238170.93000793 739624.53999329 277.75000000 -2044.000000
238171.80000305 739624.37001038 277.75000000 -2044.000000
238171.31001282 739624.33000183 277.77999878 -2045.000000
238171.03001404 739624.03999329 277.78997803 -2044.000000
238171.52000427 739624.06999207 277.76998901 -2044.000000
238171.38999939 739624.86000061 277.75000000 -2045.000000
238171.43000793 739624.58000183 277.76998901 -2044.000000
238171.87998962 739624.90000916 277.76000977 -2044.000000
238171.93998718 739624.62001038 277.78997803 -2045.000000
238170.69999695 739625.36000061 277.73001099 -2045.000000
238170.21000671 739625.33000183 277.76998901 -2045.000000
238170.00999451 739625.00001526 277.75000000 -2045.000000
238170.21998596 739625.84001160 277.73999023 -2044.000000
238170.31001282 739625.61000061 277.73999023 -2045.000000
238170.71998596 739625.87998962 277.75000000 -2044.000000
238170.81001282 739625.63999939 277.73001099 -2044.000000
238171.68998718 739625.43998718 277.73999023 -2045.000000
238171.19999695 739625.40000916 277.76000977 -2045.000000
238171.00001526 739625.06999207 277.70001221 -2045.000000
238171.50999451 739625.11000061 277.72000122 -2045.000000
238171.21998596 739625.91999817 277.75000000 -2044.000000
238171.31001282 739625.68000793 277.72000122 -2045.000000
238171.71000671 739625.96000671 277.73001099 -2045.000000
238171.81001282 739625.72999573 277.73999023 -2045.000000
238169.94999695 739626.41999817 277.77999878 -2045.000000
238169.43998718 739626.37001038 277.76000977 -2045.000000
238169.27000427 739626.03999329 277.73999023 -2045.000000
238169.77000427 739626.08000183 277.75000000 -2044.000000
238170.53999329 739627.28999329 277.76000977 -2045.000000
238170.77000427 739626.15998840 277.73001099 -2045.000000
238170.43998718 739626.46000671 277.76000977 -2044.000000
238170.27000427 739626.12001038 277.73001099 -2045.000000
238170.00001526 739626.96000671 277.75000000 -2045.000000
238170.06001282 739626.72999573 277.76000977 -2045.000000
238170.56999207 739626.77000427 277.77999878 -2045.000000
238170.94999695 739626.50001526 277.78997803 -2045.000000
238171.75999451 739626.24000549 277.71002197 -2045.000000
238171.27000427 739626.19999695 277.72000122 -2045.000000
238171.43998718 739626.53999329 277.75000000 -2045.000000
238171.05000305 739626.81001282 277.73999023 -2045.000000
238171.55000305 739626.84999084 277.75000000 -2045.000000
238171.93998718 739626.58000183 277.75000000 -2045.000000
238170.50001526 739627.00001526 277.76000977 -2045.000000
238170.87998962 739627.62001038 277.75000000 -2045.000000
238171.50999451 739627.09001160 277.77999878 -2045.000000
238171.03001404 739627.33000183 277.75000000 -2045.000000
238171.00999451 739627.05000305 277.76998901 -2044.000000
238171.53001404 739627.37998962 277.73999023 -2044.000000
238171.43000793 739627.99000549 277.72000122 -2044.000000
238171.37998962 739627.65998840 277.73999023 -2045.000000
238171.87001038 739627.69999695 277.73001099 -2045.000000
238175.90000916 739625.34999084 279.68002319 -2045.000000
238172.52000427 739625.19999695 277.77999878 -2045.000000
238172.53001404 739624.15000916 277.76998901 -2043.000000
238172.30000305 739624.40998840 277.75000000 -2044.000000
238172.78999329 739624.43998718 277.71002197 -2043.000000
238172.37998962 739624.93998718 277.76000977 -2044.000000
238172.43000793 739624.65000916 277.76000977 -2044.000000
238172.87001038 739624.97999573 277.73001099 -2044.000000
238172.91999817 739624.68998718 277.73999023 -2043.000000
238173.50001526 739624.21998596 277.71002197 -2044.000000
238173.28999329 739624.47999573 277.73999023 -2043.000000
238173.00999451 739624.18000793 277.73999023 -2042.000000
238173.41999817 739624.72999573 277.72000122 -2041.000000
238173.90998840 739624.77000427 277.70001221 -2043.000000
238173.78001404 739624.52000427 277.70001221 -2043.000000
238172.18998718 739625.47999573 277.75000000 -2045.000000
238172.00999451 739625.15000916 277.73999023 -2044.000000
238172.30000305 739625.75999451 277.71002197 -2045.000000
238172.68998718 739625.52000427 277.76000977 -2045.000000
238172.80000305 739625.80000305 277.71002197 -2044.000000
238173.50001526 739625.27000427 277.71002197 -2044.000000
238173.00999451 739625.22999573 277.73001099 -2044.000000
238173.37001038 739625.02000427 277.73001099 -2043.000000
238173.87001038 739625.06001282 277.73999023 -2043.000000
238173.28999329 739625.84001160 277.72000122 -2045.000000
238173.18000793 739625.56001282 277.72000122 -2045.000000
238173.78999329 739625.87998962 277.72000122 -2044.000000
238173.68998718 739625.59999084 277.73999023 -2044.000000
238174.97999573 739625.37998962 277.70001221 -2043.000000
238174.50001526 739624.28999329 277.71002197 -2045.000000
238174.00999451 739624.25999451 277.73999023 -2045.000000
238174.40000916 739624.80000305 277.66998291 -2043.000000
238174.28001404 739624.55000305 277.71002197 -2043.000000
238174.90000916 739624.84001160 277.71002197 -2044.000000
238174.77000427 739624.59001160 277.66998291 -2044.000000
238174.86000061 739625.12998962 277.71002197 -2043.000000
238174.00001526 739625.31001282 277.72000122 -2042.000000
238174.36000061 739625.09001160 277.71002197 -2043.000000
238174.49000549 739625.34999084 277.71002197 -2043.000000
238174.28999329 739625.91999817 277.71002197 -2043.000000
238174.18000793 739625.63999939 277.73001099 -2043.000000
238174.78001404 739625.96000671 277.71002197 -2043.000000
238174.68000793 739625.68000793 277.73001099 -2043.000000
238175.46998596 739625.40998840 277.68997192 -2045.000000
238175.18000793 739625.71998596 277.75000000 -2044.000000
238175.66999817 739625.75001526 277.72000122 -2044.000000
238172.53001404 739627.46000671 277.75000000 -2045.000000
238172.75999451 739626.31999207 277.73001099 -2044.000000
238172.25999451 739626.28001404 277.73001099 -2045.000000
238172.21000671 739626.00001526 277.73999023 -2045.000000
238172.69999695 739626.03001404 277.72000122 -2045.000000
238172.05000305 739626.88999939 277.73001099 -2045.000000
238172.43000793 739626.61000061 277.73001099 -2045.000000
238172.56001282 739626.93998718 277.76998901 -2045.000000
238172.93000793 739626.65998840 277.73999023 -2045.000000
238173.75001526 739626.40000916 277.73001099 -2045.000000
238173.25999451 739626.36000061 277.73001099 -2045.000000
238173.21000671 739626.08000183 277.73001099 -2045.000000
238173.71000671 739626.12001038 277.73001099 -2045.000000
238173.43998718 739626.69999695 277.75000000 -2045.000000
238173.03001404 739626.96998596 277.71002197 -2045.000000
238173.93000793 739626.74000549 277.75000000 -2045.000000
238172.50001526 739627.16999817 277.77999878 -2044.000000
238172.03001404 739627.41999817 277.76998901 -2044.000000
238172.00001526 739627.12998962 277.75000000 -2045.000000
238172.99000549 739627.21000671 277.76000977 -2045.000000
238172.36000061 739627.74000549 277.72000122 -2045.000000
238172.87001038 739627.78001404 277.73001099 -2045.000000
238173.56001282 739627.00999451 277.79998779 -2045.000000
238173.49000549 739627.25001526 277.75000000 -2044.000000
238173.97999573 739627.28999329 277.73001099 -2045.000000
238173.37001038 739627.83000183 277.75000000 -2045.000000
238173.03001404 739627.50001526 277.76000977 -2044.000000
238173.53001404 739627.53999329 277.75000000 -2045.000000
238173.86000061 739627.87001038 277.73999023 -2045.000000
238174.97999573 739627.37001038 277.73999023 -2045.000000
238174.74000549 739626.47999573 277.72000122 -2043.000000
238174.25001526 739626.43998718 277.71002197 -2044.000000
238174.19999695 739626.15998840 277.73001099 -2043.000000
238174.69999695 739626.18998718 277.72000122 -2043.000000
238174.41999817 739626.78001404 277.73001099 -2044.000000
238174.91999817 739626.81999207 277.75000000 -2043.000000
238175.68000793 739626.27000427 277.66998291 -2043.000000
238175.21000671 739626.24000549 277.76000977 -2043.000000
238175.28001404 739626.00001526 277.70001221 -2043.000000
238175.75999451 739626.03001404 277.65997314 -2043.000000
238175.41999817 739626.86000061 277.75000000 -2043.000000
238175.24000549 739626.52000427 277.72000122 -2043.000000
238175.90000916 739626.90000916 277.72000122 -2044.000000
238175.72999573 739626.56001282 277.66998291 -2043.000000
238174.53999329 739627.08000183 277.71002197 -2045.000000
238174.47999573 739627.33000183 277.73001099 -2044.000000
238174.05000305 739627.05000305 277.73999023 -2045.000000
238174.36000061 739627.90998840 277.75000000 -2045.000000
238174.02000427 739627.58000183 277.73999023 -2045.000000
238174.53001404 739627.62001038 277.76998901 -2044.000000
238174.84999084 739627.94999695 277.73001099 -2045.000000
238175.96998596 739627.44999695 277.76000977 -2043.000000
238175.03999329 739627.12998962 277.76000977 -2044.000000
238175.46998596 739627.40000916 277.72000122 -2044.000000
238175.53999329 739627.16999817 277.73999023 -2043.000000
238175.02000427 739627.65998840 277.73999023 -2045.000000
238175.50999451 739627.69999695 277.72000122 -2044.000000
238174.90000916 739624.19999695 279.66998291 -2045.000000
238174.46000671 739624.18000793 279.88000488 -2045.000000
238175.97999573 739624.28999329 279.98001099 -2046.000000
238175.46998596 739624.25001526 279.95001221 -2046.000000
238175.91999817 739624.00001526 279.60000610 -2045.000000
238171.90998840 739628.21000671 277.75000000 -2045.000000
238171.41999817 739628.16999817 277.76000977 -2045.000000
238171.93000793 739628.03001404 277.73999023 -2045.000000
238171.87001038 739628.75999451 277.65997314 -2045.000000
238171.56999207 739628.53999329 277.71002197 -2045.000000
238172.56999207 739629.18998718 277.64999390 -2045.000000
238172.46998596 739629.36000061 277.68002319 -2045.000000
238172.90000916 739628.28999329 277.72000122 -2045.000000
238172.40998840 739628.25001526 277.73999023 -2045.000000
238172.43000793 739628.06999207 277.73999023 -2045.000000
238172.91999817 739628.12001038 277.73001099 -2045.000000
238172.37998962 739628.81001282 277.70001221 -2045.000000
238172.08000183 739628.58000183 277.72000122 -2045.000000
238172.86000061 739628.84999084 277.64999390 -2045.000000
238172.56999207 739628.62001038 277.71002197 -2045.000000
238173.90000916 739628.37998962 277.71002197 -2045.000000
238173.40000916 739628.33000183 277.73001099 -2044.000000
238173.40998840 739628.15998840 277.71002197 -2045.000000
238173.91999817 739628.19999695 277.73999023 -2045.000000
238173.36000061 739628.90000916 277.65997314 -2045.000000
238173.05000305 739628.65998840 277.66998291 -2044.000000
238173.86000061 739628.93998718 277.63998413 -2045.000000
238173.55000305 739628.68998718 277.63998413 -2045.000000
238173.56999207 739629.27000427 277.64999390 -2045.000000
238173.46998596 739629.43998718 277.63998413 -2045.000000
238173.06001282 739629.22999573 277.61001587 -2045.000000
238173.96000671 739629.47999573 277.63000488 -2045.000000
238173.11000061 739629.77000427 277.60000610 -2045.000000
238173.62001038 739629.81001282 277.60000610 -2044.000000
238174.55000305 739629.36000061 277.61001587 -2045.000000
238174.90998840 739628.28999329 277.73001099 -2044.000000
238174.37998962 739628.41999817 277.70001221 -2045.000000
238174.40998840 739628.24000549 277.73001099 -2045.000000
238174.90000916 739628.46000671 277.72000122 -2045.000000
238174.37001038 739628.97999573 277.68002319 -2045.000000
238174.05000305 739628.74000549 277.68002319 -2044.000000
238174.55000305 739628.78001404 277.68002319 -2044.000000
238175.88999939 739628.37001038 277.70001221 -2043.000000
238175.40000916 739628.33000183 277.71002197 -2045.000000
238175.36000061 739628.00001526 277.72000122 -2045.000000
238175.84999084 739628.03999329 277.72000122 -2043.000000
238175.03999329 739628.83000183 277.68997192 -2044.000000
238175.38999939 739628.50999451 277.73001099 -2044.000000
238175.53001404 739628.87001038 277.66998291 -2045.000000
238175.88999939 739628.55000305 277.72000122 -2045.000000
238174.86000061 739629.03001404 277.65997314 -2045.000000
238174.06999207 739629.31999207 277.64999390 -2045.000000
238174.11000061 739629.86000061 277.61001587 -2045.000000
238174.44999695 739629.53001404 277.61999512 -2044.000000
238174.61000061 739629.90000916 277.60000610 -2045.000000
238174.94999695 739629.56999207 277.61999512 -2044.000000
238175.56001282 739629.44999695 277.63998413 -2045.000000
238175.06001282 739629.40000916 277.61999512 -2045.000000
238175.34999084 739629.06999207 277.63000488 -2045.000000
238175.84999084 739629.11000061 277.66998291 -2045.000000
238175.11000061 739629.93998718 277.61001587 -2045.000000
238175.46000671 739629.62001038 277.64999390 -2045.000000
238175.61000061 739629.99000549 277.60000610 -2045.000000
