203908.784	486996.966	18.339
203909.767	486995.014	9.739
203907.023	486997.925	17.429
203908.703	486994.619	2.924
203908.367	486994.777	2.591
203907.998	486994.987	2.461
203905.378	486999.009	17.792
203906.809	486995.761	2.662
203922.360	486987.308	14.029
203921.718	486987.476	12.528
203920.558	486987.821	10.088
203918.563	486988.442	6.069
203917.105	486989.484	6.896
203913.795	486990.846	2.352
203909.372	486996.245	19.245
203909.118	486996.354	18.926
203910.901	486992.716	2.738
203909.308	486993.729	2.843
203908.181	486994.392	2.573
203907.810	486994.607	2.462
203907.433	486994.830	2.382
203907.043	486995.077	2.401
203906.653	486995.326	2.432
203905.509	486996.029	2.356
203905.109	486996.302	2.503
203923.428	486985.958	12.844
203921.683	486985.600	3.566
203921.583	486985.500	2.524
203916.364	486989.299	5.916
203915.669	486989.163	2.266
203915.257	486989.421	2.257
203913.987	486990.239	2.405
203913.538	486990.548	2.585
203909.133	486995.940	19.431
203908.690	486996.068	18.474
203909.180	486993.249	2.402
203908.725	486993.593	2.781
203908.341	486993.827	2.742
203907.973	486994.037	2.610
203907.605	486994.247	2.479
203907.240	486994.452	2.323
203906.843	486994.710	2.389
203906.459	486994.948	2.372
203906.062	486995.211	2.463
203905.643	486995.517	2.741
203905.299	486995.684	2.431
203904.910	486995.935	2.482
203924.050	486985.071	12.841
203922.430	486986.076	12.771
203921.995	486986.361	12.847
203924.410	486983.276	2.810
203922.277	486984.968	5.077
203921.794	486985.092	3.928
203921.537	486985.167	3.382
203920.125	486985.887	2.325
203919.654	486986.202	2.447
203916.787	486988.645	6.569
203916.326	486988.967	6.782
203915.992	486989.139	6.537
203915.822	486989.109	5.667
203915.029	486989.088	2.354
203913.382	486990.124	2.374
203912.552	486990.659	2.462
203912.152	486990.906	2.444
203910.911	486992.029	4.648
203910.953	486991.655	2.425
203910.547	486991.916	2.466
203909.756	486992.411	2.459
203909.358	486992.664	2.479
203908.969	486992.904	2.454
203908.551	486993.191	2.613
203908.144	486993.463	2.717
203907.733	486993.743	2.863
203907.347	486993.985	2.858
203907.026	486994.116	2.413
203906.248	486994.611	2.453
203905.835	486994.904	2.670
203905.467	486995.116	2.551
203923.669	486984.393	10.158
203922.415	486985.520	12.324
203922.462	486984.765	7.695
203921.384	486984.751	3.282
203921.093	486984.861	2.825
203920.731	486985.051	2.586
203919.901	486985.551	2.450
203919.469	486985.822	2.445
203917.027	486987.991	6.495
203915.633	486988.739	5.681
203916.057	486987.972	2.489
203915.672	486988.194	2.363
203912.816	486990.258	4.085
203911.961	486990.543	2.476
203911.147	486991.063	2.534
203910.783	486991.263	2.353
203909.291	486992.794	6.141
203909.560	486992.059	2.529
203909.189	486992.271	2.396
203908.763	486992.569	2.590
203908.387	486992.792	2.501
203907.990	486993.046	2.538
203907.541	486993.389	2.923
203907.151	486993.637	2.946
203906.734	486993.934	3.165
203906.351	486994.174	3.165
203906.009	486994.343	2.869
203905.655	486994.531	2.652
203905.307	486994.707	2.379
203904.911	486994.972	2.485
203928.146	486979.981	3.018
203921.613	486985.636	12.874
203921.233	486985.517	10.591
203920.914	486984.497	2.809
203918.382	486986.718	6.815
203916.655	486988.076	8.546
203916.372	486988.192	8.152
203915.353	486988.261	4.506
203915.454	486987.883	2.502
203914.647	486988.377	2.416
203911.754	486990.225	2.598
203911.393	486990.422	2.404
203910.978	486990.694	2.476
203909.781	486991.449	2.492
203909.324	486991.792	2.842
203908.974	486991.973	2.595
203908.568	486992.241	2.675
203908.222	486992.416	2.404
203907.815	486992.689	2.508
203907.442	486992.907	2.404
203906.979	486993.275	2.897
203906.641	486993.436	2.567
203905.898	486993.872	2.366
203905.333	486994.443	3.740
203905.096	486994.417	2.628
203924.072	486983.643	13.361
203923.380	486983.525	9.842
203920.760	486985.577	12.395
203917.315	486986.197	2.554
203915.010	486988.027	4.964
203912.000	486989.500	2.283
203911.610	486989.735	2.217
203909.468	486991.533	5.073
203909.193	486991.614	4.483
203908.005	486992.029	2.371
203907.602	486992.295	2.446
203907.187	486992.582	2.610
203906.774	486992.868	2.778
203905.976	486993.402	2.976
203905.505	486993.800	3.624
203905.167	486993.964	3.312
203922.753	486983.964	13.047
203922.023	486984.388	12.817
203920.287	486985.359	12.036
203915.779	486987.897	10.112
203915.605	486987.668	7.965
203916.726	486986.090	2.427
203911.754	486989.237	2.509
203909.766	486990.479	2.446
203908.185	486991.478	2.462
203907.369	486992.026	2.677
203906.985	486992.264	2.650
203906.583	486992.533	2.750
203906.064	486993.005	3.669
203905.664	486993.278	3.805
203905.376	486993.354	3.134
203905.038	486993.517	2.811
203923.125	486983.328	13.689
203922.535	486981.975	2.744
203919.871	486984.673	9.196
203919.949	486983.570	2.515
203916.899	486985.514	2.640
203914.865	486987.259	5.569
203914.883	486986.736	2.324
203912.984	486988.101	3.384
203912.784	486988.086	2.487
203910.323	486989.980	4.657
203909.175	486990.360	2.470
203908.799	486990.580	2.364
203908.386	486990.857	2.469
203908.029	486991.050	2.262
203907.287	486991.853	4.388
203906.943	486992.035	4.160
203906.570	486992.261	4.106
203906.222	486992.447	3.891
203905.838	486992.694	3.919
203905.119	486993.102	3.634
203923.278	486982.801	13.927
203921.690	486983.784	13.799
203918.546	486985.014	9.006
203919.676	486983.334	2.878
203918.036	486984.323	2.581
203914.336	486986.603	2.218
203913.845	486986.963	2.533
203912.970	486987.553	2.765
203912.529	486987.855	2.915
203912.198	486988.010	2.580
203911.762	486988.309	2.725
203911.373	486988.544	2.658
203909.820	486989.488	2.421
203909.034	486989.978	2.380
203908.251	486990.466	2.339
203907.856	486990.717	2.352
203907.075	486991.210	2.346
203906.050	486992.117	3.990
203905.898	486991.966	2.423
203905.275	486992.624	4.105
203904.922	486992.819	3.926
203923.887	486981.591	11.956
203922.135	486981.254	2.817
203920.427	486982.299	2.601
203919.954	486982.614	2.700
203917.827	486983.937	2.561
203917.438	486984.161	2.425
203916.976	486984.473	2.548
203916.493	486984.811	2.757
203912.023	486987.582	2.409
203909.192	486989.389	2.516
203908.607	486989.921	3.546
203907.234	486990.617	2.460
203906.831	486990.886	2.544
203906.460	486991.102	2.430
203905.901	486991.635	3.566
203905.676	486991.607	2.488
203922.012	486982.632	13.984
203921.661	486982.831	13.841
203925.223	486978.795	2.578
203922.386	486980.625	2.795
203920.567	486981.790	2.889
203920.103	486982.095	2.959
203919.737	486982.291	2.736
203919.321	486982.543	2.668
203918.956	486982.738	2.440
203918.421	486983.128	2.767
203916.781	486984.125	2.511
203916.275	486984.491	2.803
203915.989	486984.594	2.308
203915.529	486984.908	2.450
203914.718	486985.404	2.346
203912.616	486986.758	2.493
203912.218	486987.001	2.445
203911.767	486987.318	2.644
203910.636	486987.975	2.271
203908.987	486989.058	2.526
203908.615	486989.273	2.398
203908.224	486989.517	2.377
203907.830	486989.767	2.377
203907.437	486990.016	2.379
203907.038	486990.275	2.423
203906.652	486990.516	2.402
203906.243	486990.794	2.528
203905.720	486991.269	3.433
203905.470	486991.282	2.518
203904.961	486991.744	3.402
203921.620	486982.158	12.420
203923.065	486979.733	2.886
203922.622	486980.009	2.856
203922.305	486980.149	2.474
203921.837	486980.453	2.521
203921.370	486980.757	2.571
203920.415	486981.391	2.762
203919.983	486981.660	2.733
203919.079	486982.246	2.819
203918.701	486982.457	2.637
203918.281	486982.716	2.593
203917.782	486983.067	2.815
203917.416	486983.266	2.604
203916.995	486983.528	2.578
203916.576	486983.790	2.555
203916.126	486984.089	2.645
203915.701	486984.359	2.655
203915.287	486984.618	2.632
203914.426	486985.179	2.732
203912.140	486986.782	3.713
203912.008	486986.678	2.527
203911.632	486986.894	2.388
203911.226	486987.152	2.392
203910.021	486987.912	2.375
203909.418	486988.456	3.401
203908.725	486988.816	2.903
203908.402	486988.960	2.518
203908.010	486989.206	2.507
203907.620	486989.450	2.488
203907.224	486989.704	2.510
203906.847	486989.930	2.429
203906.445	486990.197	2.504
203905.995	486990.543	2.898
203905.645	486990.728	2.662
203904.875	486991.215	2.658
203926.554	486977.045	3.020
203926.117	486977.307	2.929
203921.474	486981.904	13.360
203921.033	486981.861	11.322
203922.125	486979.764	2.464
203921.638	486980.089	2.563
203921.123	486980.446	2.756
203920.164	486981.087	2.966
203919.268	486981.663	3.019
203918.894	486981.870	2.825
203918.552	486982.039	2.525
203918.115	486982.317	2.535
203917.665	486982.612	2.593
203917.220	486982.902	2.646
203916.805	486983.158	2.602
203916.344	486983.470	2.725
203915.374	486984.158	3.183
203915.083	486984.267	2.710
203914.712	486984.475	2.532
203913.041	486985.541	2.579
203912.359	486986.154	3.718
203912.130	486986.181	2.970
203911.835	486986.290	2.483
203911.476	486986.484	2.269
203911.016	486986.815	2.517
203910.625	486987.054	2.459
203909.119	486988.251	3.989
203909.017	486988.079	2.495
203908.607	486988.349	2.563
203908.171	486988.661	2.786
203907.831	486988.830	2.489
203907.458	486989.048	2.375
203907.067	486989.295	2.368
203906.661	486989.567	2.459
203906.263	486989.826	2.505
203905.863	486990.092	2.582
203905.475	486990.339	2.586
203905.059	486990.635	2.794
203926.769	486976.461	3.205
203925.936	486976.943	2.915
203925.465	486977.242	2.913
203925.063	486977.469	2.741
203924.658	486977.701	2.580
203922.322	486979.196	2.663
203921.882	486979.469	2.626
203921.458	486979.726	2.548
203921.050	486979.966	2.429
203920.026	486980.679	2.825
203919.556	486980.991	2.912
203919.274	486981.093	2.427
203918.543	486981.703	3.351
203918.350	486981.703	2.581
203917.996	486981.886	2.319
203917.494	486982.241	2.550
203916.219	486983.045	2.516
203912.800	486985.261	2.812
203912.039	486985.705	2.569
203910.458	486986.680	2.384
203908.919	486987.924	4.074
203908.451	486987.959	2.421
203908.037	486988.237	2.520
203907.257	486988.726	2.479
203906.871	486988.965	2.444
203906.459	486989.247	2.573
203906.055	486989.518	2.667
203905.706	486989.700	2.419
203905.277	486990.015	2.691
203926.101	486976.380	3.168
203925.710	486976.595	2.964
203925.187	486976.948	3.093
203923.910	486977.709	2.777
203922.903	486978.385	3.007
203922.536	486978.579	2.762
203922.083	486978.866	2.757
203921.696	486979.081	2.570
203921.250	486979.362	2.555
203920.861	486979.582	2.381
203919.997	486980.116	2.293
203919.017	486980.785	2.586
203917.668	486981.663	2.724
203916.013	486982.682	2.522
203915.556	486982.991	2.639
203911.034	486985.843	2.519
203910.422	486986.383	3.471
203908.875	486987.643	5.222
203908.966	486987.203	2.814
203908.604	486987.404	2.633
203908.245	486987.600	2.436
203906.986	486988.470	2.876
203906.619	486988.680	2.736
203906.251	486988.894	2.608
203905.826	486989.200	2.835
203905.405	486989.502	3.057
203905.058	486989.682	2.802
203926.264	486975.856	3.445
203925.871	486976.074	3.248
203925.435	486976.337	3.157
203924.677	486976.745	2.698
203923.742	486977.339	2.702
203923.196	486977.722	2.924
203922.750	486977.999	2.887
203922.380	486978.196	2.650
203921.961	486978.446	2.548
203921.477	486978.768	2.636
203920.621	486979.292	2.509
203919.393	486980.233	3.523
203919.126	486980.320	3.002
203918.884	486980.376	2.392
203918.367	486980.743	2.638
203917.832	486981.135	2.962
203917.507	486981.285	2.610
203917.075	486981.561	2.614
203916.654	486981.823	2.584
203915.848	486982.308	2.416
203915.370	486982.642	2.605
203914.953	486982.904	2.588
203913.508	486983.938	3.320
203913.203	486984.065	2.899
203910.820	486985.533	2.607
203910.211	486986.070	3.550
203908.984	486987.180	5.633
203909.258	486986.488	2.378
203908.799	486986.827	2.676
203908.434	486987.034	2.514
203908.040	486987.281	2.497
203906.456	486988.297	2.559
203906.024	486988.611	2.812
203905.629	486988.870	2.859
203905.272	486989.067	2.668
203904.919	486989.254	2.442
203925.985	486975.576	3.654
203925.646	486975.740	3.328
203925.259	486975.952	3.116
203924.872	486976.164	2.906
203923.964	486976.730	2.834
203923.412	486977.117	3.062
203922.878	486977.488	3.258
203922.555	486977.636	2.897
203922.136	486977.885	2.792
203921.766	486978.083	2.558
203921.322	486978.361	2.530
203920.410	486978.946	2.564
203919.910	486979.290	2.724
203919.346	486979.705	3.085
203918.960	486979.925	2.922
203918.698	486980.004	2.374
203918.179	486980.375	2.630
203916.454	486981.468	2.612
203916.040	486981.725	2.567
203915.672	486981.925	2.361
203915.235	486982.210	2.404
203914.679	486982.641	2.891
203914.116	486983.084	3.429
203913.935	486983.058	2.543
203913.534	486983.303	2.478
203912.886	486983.861	3.398
203912.331	486984.043	2.319
203911.479	486984.604	2.447
203910.674	486985.394	4.194
203909.975	486985.768	3.755
203909.388	486985.985	2.769
203909.018	486986.196	2.621
203908.617	486986.454	2.637
203908.213	486986.717	2.674
203907.845	486986.926	2.524
203907.470	486987.147	2.414
203907.054	486987.431	2.535
203906.667	486987.673	2.506
203906.260	486987.945	2.595
203905.777	486988.343	3.163
203905.494	486988.419	2.512
203905.105	486988.668	2.522
203925.837	486975.188	3.548
203925.402	486975.450	3.454
203924.995	486975.683	3.295
203924.581	486975.924	3.155
203924.229	486976.102	2.862
203923.668	486976.496	3.102
203923.132	486976.868	3.295
203922.661	486977.173	3.325
203922.322	486977.338	3.008
203921.920	486977.570	2.860
203921.554	486977.764	2.617
203921.060	486978.096	2.731
203920.671	486978.316	2.555
203920.214	486978.610	2.578
203919.762	486978.900	2.596
203919.394	486979.098	2.366
203918.835	486979.510	2.721
203916.289	486981.098	2.526
203915.866	486981.364	2.509
203914.965	486981.967	2.693
203914.152	486982.467	2.588
203911.437	486984.614	5.225
203910.827	486984.877	4.441
203910.125	486985.258	4.026
203909.726	486985.512	4.033
203909.395	486985.675	3.733
203909.198	486985.648	2.775
203908.431	486986.112	2.623
203908.043	486986.351	2.575
203907.656	486986.590	2.529
203907.128	486987.041	3.255
203906.885	486987.063	2.426
203906.454	486987.372	2.645
203906.108	486987.550	2.381
203905.690	486987.843	2.548
203905.322	486988.055	2.412
203904.931	486988.307	2.432
203925.533	486974.950	3.813
203925.131	486975.179	3.643
203924.714	486975.423	3.510
203923.972	486976.004	4.194
203923.940	486975.851	3.104
203923.540	486976.079	2.935
203922.922	486976.536	3.338
203922.442	486976.851	3.395
203922.012	486977.113	3.324
203921.673	486977.278	3.009
203921.354	486977.421	2.634
203920.949	486977.658	2.499
203920.509	486977.932	2.465
203920.080	486978.196	2.408
203919.552	486978.571	2.648
203918.696	486979.101	2.559
203916.103	486980.743	2.507
203915.693	486980.994	2.444
203915.294	486981.232	2.347
203914.434	486981.786	2.390
203910.918	486984.430	4.933
203910.697	486984.170	2.422
203909.872	486984.704	2.483
203909.373	486985.093	2.932
203908.456	486985.771	3.521
203907.847	486986.012	2.601
203907.463	486986.246	2.537
203906.685	486986.732	2.481
203906.261	486987.031	2.662
203905.918	486987.204	2.379
203905.528	486987.452	2.374
203925.281	486974.638	3.931
203924.886	486974.860	3.744
203924.530	486975.042	3.464
203924.193	486975.204	3.134
203923.751	486975.474	3.067
203922.964	486975.916	2.696
203922.369	486976.352	3.050
203921.794	486976.768	3.365
203921.455	486976.933	3.050
203921.105	486977.110	2.763
203920.744	486977.299	2.505
203920.336	486977.539	2.383
203919.900	486977.811	2.343
203919.428	486978.122	2.413
203915.677	486980.647	3.268
203914.674	486981.134	2.322
203911.613	486983.438	4.538
203911.257	486983.364	2.657
203908.327	486985.617	5.085
203907.176	486986.016	2.998
203906.773	486986.283	3.059
203906.497	486986.355	2.411
203906.116	486986.587	2.344
203905.704	486986.868	2.461
203905.311	486987.121	2.475
203904.954	486987.315	2.273
203925.061	486974.318	3.999
203924.642	486974.564	3.873
203924.282	486974.750	3.602
203923.967	486974.890	3.220
203923.560	486975.125	3.066
203923.140	486975.374	2.949
203922.696	486975.648	2.897
203922.267	486975.908	2.812
203921.626	486976.395	3.302
203921.245	486976.605	3.102
203920.962	486976.710	2.630
203920.541	486976.964	2.540
203920.151	486977.184	2.364
203919.706	486977.466	2.351
203919.286	486977.720	2.269
203918.760	486978.094	2.513
203917.359	486979.245	4.129
203917.457	486978.916	2.459
203916.993	486979.225	2.546
203916.593	486979.463	2.438
203916.127	486979.777	2.550
203915.755	486979.984	2.357
203914.906	486980.521	2.333
203911.518	486982.703	2.485
203911.099	486982.977	2.525
203910.715	486983.204	2.418
203906.666	486985.815	2.611
203905.930	486986.237	2.323
203905.525	486986.508	2.401
203924.891	486973.927	3.929
203924.327	486974.323	4.155
203923.072	486975.067	3.803
203922.066	486975.551	2.819
203921.529	486975.926	3.028
203921.240	486976.037	2.571
203920.822	486976.288	2.469
203920.381	486976.563	2.432
203919.466	486977.153	2.473
203919.035	486977.420	2.428
203918.613	486977.678	2.358
203917.705	486978.269	2.435
203916.742	486979.149	4.098
203916.402	486979.097	2.418
203915.593	486979.584	2.236
203915.121	486979.907	2.382
203910.874	486982.657	2.643
203909.722	486983.343	2.340
203908.083	486984.409	2.475
203907.705	486984.633	2.367
203907.302	486984.894	2.394
203906.901	486985.153	2.414
203906.500	486985.414	2.447
203905.742	486985.870	2.281
203904.955	486986.377	2.307
203924.618	486973.675	4.133
203924.009	486974.118	4.472
203923.705	486974.248	4.073
203923.347	486974.434	3.806
203921.800	486975.296	3.027
203921.375	486975.552	2.938
203920.958	486975.802	2.833
203920.619	486975.966	2.511
203920.179	486976.241	2.474
203919.718	486976.539	2.502
203919.316	486976.773	2.364
203918.821	486977.112	2.506
203918.370	486977.403	2.526
203917.516	486977.934	2.442
203917.094	486978.195	2.391
203916.647	486978.485	2.424
203915.813	486979.000	2.318
203912.800	486980.945	2.462
203911.761	486981.738	3.280
203908.998	486983.737	4.762
203908.304	486983.808	2.441
203907.941	486984.010	2.255
203906.748	486984.768	2.240
203905.179	486985.761	2.194
203924.438	486973.307	4.095
203923.927	486973.648	4.193
203923.152	486974.080	3.802
203922.010	486974.707	3.169
203921.203	486975.174	2.873
203919.981	486975.891	2.479
203919.501	486976.210	2.560
203918.629	486976.755	2.493
203916.857	486978.109	3.886
203916.905	486977.835	2.369
203916.458	486978.125	2.402
203916.035	486978.389	2.366
203924.258	486972.959	4.065
203923.744	486973.304	4.171
203923.257	486973.622	4.221
203921.474	486974.542	2.862
203919.345	486975.835	2.458
203918.907	486976.109	2.427
203917.550	486976.986	2.497
203917.142	486977.230	2.398
203916.683	486977.534	2.464
203915.384	486978.361	2.456
203908.316	486983.166	4.312
203907.927	486983.107	2.395
203906.947	486983.879	3.310
203906.763	486983.822	2.222
203905.034	486985.413	5.265
203924.039	486972.644	4.121
203923.596	486972.916	4.055
203923.178	486973.162	3.931
203919.578	486975.233	2.524
203919.130	486975.518	2.516
203918.670	486975.816	2.548
203916.977	486976.857	2.304
203916.518	486977.161	2.370
203914.357	486978.539	2.367
203913.943	486978.796	2.325
203913.531	486979.051	2.276
203908.782	486982.501	4.894
203907.783	486982.699	2.156
203907.352	486982.997	2.300
203906.871	486983.369	2.711
203906.570	486983.482	2.218
203923.370	486972.591	4.131
203918.431	486976.673	9.921
203920.156	486974.445	2.900
203916.730	486977.394	7.650
203917.192	486976.256	2.402
203916.743	486976.547	2.428
203915.861	486977.114	2.455
203915.446	486977.368	2.392
203914.964	486977.703	2.559
203914.589	486977.912	2.374
203913.721	486978.475	2.424
203907.155	486982.647	2.316
203906.656	486983.047	2.822
203906.313	486983.221	2.547
203905.988	486983.368	2.169
203905.578	486983.643	2.249
203921.064	486973.522	3.653
203917.442	486976.644	8.695
203918.770	486974.796	2.474
203916.559	486976.202	2.440
203916.101	486976.505	2.506
203915.744	486976.691	2.250
203913.576	486978.083	2.298
203911.209	486979.756	3.310
203908.537	486981.338	2.539
203906.964	486982.316	2.374
203906.560	486982.578	2.398
203906.162	486982.831	2.396
203905.774	486983.071	2.350
203920.733	486973.304	3.978
203919.687	486973.835	3.125
203916.816	486975.546	2.371
203916.347	486975.860	2.461
203913.797	486977.461	2.298
203913.320	486977.794	2.475
203912.951	486977.998	2.279
203910.979	486979.438	3.405
203909.469	486980.319	2.892
203906.354	486982.229	2.402
203905.572	486982.717	2.335
203905.117	486983.060	2.661
203920.918	486972.748	4.138
203920.587	486972.907	3.809
203920.112	486973.217	3.859
203918.273	486974.206	2.705
203917.487	486974.656	2.389
203914.854	486976.335	2.379
203914.405	486976.631	2.436
203914.011	486976.863	2.315
203913.532	486977.196	2.489
203913.111	486977.463	2.474
203912.700	486977.717	2.426
203910.853	486979.002	3.082
203910.624	486979.031	2.355
203906.566	486981.611	2.294
203906.160	486981.876	2.328
203905.731	486982.175	2.487
203905.351	486982.404	2.403
203904.950	486982.665	2.436
203921.634	486971.829	4.117
203920.417	486972.538	3.697
203919.274	486973.171	3.099
203918.436	486973.677	2.918
203915.079	486975.731	2.373
203914.615	486976.043	2.473
203914.196	486976.304	2.431
203913.772	486976.571	2.410
203913.318	486976.876	2.502
203912.938	486977.092	2.341
203907.545	486980.539	2.376
203905.957	486981.540	2.297
203905.563	486981.788	2.277
203905.148	486982.068	2.373
203921.434	486971.512	4.158
203920.913	486971.870	4.311
203920.559	486972.052	4.041
203920.048	486972.401	4.184
203917.481	486974.765	8.685
203918.688	486973.072	2.961
203915.328	486975.122	2.383
203914.826	486975.477	2.597
203914.448	486975.689	2.416
203913.560	486976.271	2.508
203913.145	486976.528	2.463
203912.734	486976.782	2.412
203909.657	486978.841	3.004
203909.342	486978.979	2.614
203908.936	486979.235	2.598
203906.564	486980.708	2.343
203906.182	486980.937	2.251
203905.786	486981.186	2.228
203905.378	486981.456	2.284
203904.956	486981.746	2.417
203920.818	486971.449	4.103
203918.784	486973.403	8.174
203919.908	486972.028	4.089
203918.007	486973.083	3.111
203917.676	486973.240	2.777
203916.451	486973.968	2.446
203915.544	486974.559	2.523
203915.052	486974.901	2.698
203914.269	486975.357	2.425
203913.839	486975.631	2.419
203913.428	486975.882	2.353
203912.955	486976.209	2.508
203912.596	486976.400	2.275
203912.083	486976.779	2.592
203910.833	486977.571	2.557
203909.239	486978.548	2.306
203908.814	486978.828	2.364
203906.743	486980.181	2.558
203906.402	486980.351	2.266
203905.563	486980.918	2.463
203905.191	486981.134	2.329
203920.581	486971.121	4.167
203920.082	486971.456	4.271
203918.391	486973.060	7.518
203917.151	486974.015	8.530
203918.554	486972.307	3.505
203917.791	486972.732	3.123
203916.618	486973.403	2.643
203915.795	486973.897	2.455
203914.897	486974.481	2.521
203914.496	486974.719	2.410
203914.018	486975.048	2.556
203913.613	486975.292	2.469
203913.187	486975.562	2.457
203912.782	486975.807	2.376
203911.919	486976.365	2.423
203909.720	486977.836	2.843
203907.791	486978.986	2.344
203906.971	486979.516	2.387
203906.559	486979.786	2.431
203905.373	486980.530	2.355
203919.477	486971.379	4.129
203917.961	486972.219	3.338
203915.433	486974.785	9.241
203916.773	486972.904	2.896
203916.347	486973.168	2.843
203915.579	486973.601	2.495
203914.706	486974.155	2.481
203914.266	486974.439	2.497
203913.836	486974.712	2.488
203913.406	486974.985	2.483
203912.980	486975.255	2.472
203912.149	486975.773	2.394
203911.725	486976.042	2.392
203910.384	486976.947	2.697
203909.982	486977.194	2.643
203908.377	486978.190	2.469
203907.558	486978.715	2.483
203906.756	486979.221	2.451
203906.344	486979.491	2.496
203905.178	486980.207	2.326
203918.336	486973.081	13.070
203918.072	486973.022	11.665
203916.771	486974.211	13.882
203919.276	486971.033	4.121
203916.323	486973.996	10.792
203917.273	486972.200	3.438
203915.726	486973.078	2.768
203914.940	486973.532	2.479
203914.117	486974.031	2.318
203913.204	486974.639	2.476
203912.802	486974.880	2.383
203912.308	486975.232	2.611
203911.892	486975.492	2.579
203911.493	486975.733	2.495
203910.635	486976.290	2.555
203909.780	486976.848	2.636
203909.029	486977.278	2.330
203908.594	486977.570	2.423
203908.157	486977.867	2.537
203907.786	486978.077	2.375
203907.354	486978.371	2.485
203906.944	486978.636	2.506
203905.794	486979.323	2.226
203905.374	486979.607	2.323
203916.363	486974.440	16.422
203916.791	486973.332	11.262
203919.077	486970.725	4.160
203916.233	486973.571	10.541
203918.182	486971.291	4.134
203915.537	486972.759	2.781
203915.121	486973.012	2.707
203914.671	486973.305	2.744
203914.325	486973.480	2.460
203913.890	486973.757	2.457
203913.407	486974.091	2.621
203912.973	486974.370	2.634
203912.571	486974.611	2.542
203911.705	486975.172	2.592
203911.318	486975.398	2.462
203910.433	486975.988	2.623
203909.583	486976.540	2.686
203909.208	486976.754	2.533
203908.409	486977.247	2.427
203907.999	486977.509	2.430
203907.182	486978.031	2.434
203906.747	486978.329	2.566
203905.982	486978.785	2.372
203916.654	486973.581	15.197
203918.015	486972.006	10.829
203917.627	486971.884	8.549
203918.435	486970.647	4.096
203917.106	486971.487	4.050
203915.290	486972.456	2.888
203913.651	486973.446	2.548
203913.215	486973.725	2.558
203912.747	486974.043	2.680
203912.325	486974.309	2.660
203911.953	486974.515	2.470
203911.527	486974.788	2.474
203911.106	486975.054	2.463
203910.248	486975.611	2.523
203909.802	486975.913	2.631
203909.363	486976.208	2.725
203908.971	486976.443	2.636
203908.596	486976.658	2.485
203908.211	486976.885	2.373
203907.770	486977.188	2.506
203907.375	486977.430	2.446
203906.945	486977.721	2.548
203906.552	486977.962	2.494
203906.161	486978.201	2.432
203905.753	486978.466	2.458
203905.003	486978.904	2.207
203915.988	486972.736	10.088
203917.647	486970.765	4.452
203915.816	486972.358	7.085
203915.567	486972.234	5.342
203913.447	486973.132	2.544
203912.956	486973.475	2.735
203912.573	486973.693	2.576
203912.137	486973.975	2.602
203911.750	486974.201	2.467
203910.928	486974.708	2.368
203910.455	486975.039	2.553
203910.023	486975.323	2.603
203909.572	486975.631	2.730
203909.173	486975.875	2.666
203908.781	486976.110	2.578
203908.392	486976.342	2.482
203907.961	486976.631	2.566
203907.588	486976.843	2.411
203907.156	486977.134	2.510
203906.769	486977.367	2.425
203906.350	486977.643	2.483
203905.929	486977.925	2.562
203905.548	486978.152	2.466
203905.144	486978.411	2.477
203918.042	486970.730	8.657
203916.802	486971.495	8.506
203917.539	486970.325	4.187
203917.088	486970.613	4.192
203916.706	486970.828	4.016
203916.242	486971.133	4.072
203914.900	486972.207	5.425
203914.061	486972.299	2.702
203913.610	486972.595	2.752
203912.791	486973.091	2.599
203912.381	486973.342	2.530
203911.960	486973.605	2.501
203911.501	486973.915	2.612
203911.112	486974.143	2.489
203910.681	486974.422	2.515
203910.272	486974.675	2.470
203909.816	486974.987	2.603
203909.395	486975.258	2.619
203908.993	486975.505	2.565
203908.589	486975.755	2.523
203908.186	486976.006	2.483
203907.768	486976.276	2.511
203907.399	486976.483	2.337
203906.939	486976.812	2.557
203906.573	486977.016	2.379
203906.173	486977.266	2.352
203905.341	486977.815	2.468
203917.385	486970.908	9.881
203916.560	486971.421	9.807
203916.567	486971.232	8.673
203917.371	486969.991	4.179
203916.468	486970.570	4.202
203914.559	486972.266	7.163
203914.714	486971.893	5.470
203913.056	486972.481	2.588
203912.210	486973.011	2.531
203911.359	486973.549	2.512
203910.897	486973.865	2.644
203910.500	486974.103	2.551
203910.078	486974.372	2.553
203909.677	486974.616	2.483
203909.199	486974.957	2.711
203908.824	486975.171	2.556
203908.436	486975.400	2.448
203908.022	486975.666	2.455
203907.592	486975.951	2.529
203907.177	486976.219	2.551
203906.772	486976.475	2.538
203906.387	486976.705	2.443
203905.578	486977.220	2.441
203916.182	486971.474	11.363
203917.166	486969.685	4.204
203911.424	486974.838	13.428
203912.772	486972.268	2.878
203912.392	486972.482	2.707
203911.993	486972.719	2.603
203911.589	486972.963	2.520
203911.154	486973.245	2.549
203910.707	486973.542	2.626
203910.300	486973.792	2.570
203909.841	486974.106	2.709
203909.445	486974.344	2.622
203909.055	486974.576	2.519
203908.622	486974.862	2.584
203908.223	486975.106	2.523
203907.804	486975.377	2.548
203907.379	486975.656	2.604
203906.991	486975.889	2.514
203906.586	486976.145	2.502
203915.310	486972.482	17.053
203915.911	486971.705	14.621
203914.230	486972.286	11.618
203916.491	486969.653	4.264
203911.193	486974.710	14.640
203912.601	486971.884	2.762
203912.164	486972.166	2.782
203911.716	486972.460	2.841
203911.292	486972.728	2.831
203910.921	486972.934	2.642
203910.503	486973.196	2.619
203910.083	486973.461	2.609
203909.652	486973.742	2.647
203909.266	486973.967	2.523
203908.846	486974.236	2.530
203908.462	486974.459	2.402
203908.035	486974.739	2.452
203907.643	486974.975	2.365
203907.215	486975.257	2.431
203906.789	486975.540	2.499
203905.962	486976.074	2.551
203905.561	486976.327	2.534
203917.125	486969.764	10.071
203915.333	486970.574	8.043
203915.788	486969.690	4.383
203914.982	486970.167	4.164
203914.097	486970.943	5.476
203912.847	486972.137	7.932
203913.774	486970.885	3.856
203910.215	486974.524	12.323
203912.703	486971.450	3.139
203912.332	486971.653	2.940
203911.925	486971.898	2.861
203910.718	486972.625	2.604
203910.312	486972.871	2.536
203909.892	486973.137	2.525
203909.074	486973.643	2.440
203908.637	486973.933	2.512
203907.411	486974.701	2.440
203906.957	486975.018	2.617
203906.138	486975.540	2.627
203905.770	486975.747	2.459
203904.973	486976.244	2.401
203917.258	486969.259	10.313
203915.259	486970.293	8.855
203913.819	486970.697	5.708
203912.932	486970.845	3.151
203912.525	486971.090	3.067
203912.121	486971.332	2.977
203911.290	486971.846	2.885
203910.087	486972.569	2.628
203909.738	486972.747	2.361
203909.231	486973.120	2.675
203908.835	486973.358	2.588
203908.430	486973.608	2.540
203907.649	486974.072	2.342
203906.788	486974.643	2.489
203905.953	486975.186	2.564
203905.572	486975.410	2.451
203905.173	486975.660	2.426
203913.115	486970.761	5.975
203913.025	486970.437	3.633
203912.686	486970.605	3.340
203912.310	486970.814	3.157
203911.946	486971.011	2.940
203911.490	486971.314	3.024
203911.149	486971.483	2.731
203909.962	486972.185	2.409
203909.483	486972.522	2.609
203909.062	486972.790	2.611
203908.651	486973.046	2.579
203908.198	486973.356	2.716
203907.825	486973.566	2.551
203907.445	486973.787	2.417
203907.009	486974.078	2.507
203914.166	486970.399	10.753
203913.806	486970.604	10.606
203912.800	486970.948	8.791
203913.094	486970.217	5.443
203912.803	486970.120	3.709
203912.409	486970.351	3.587
203910.132	486971.638	2.609
203909.649	486971.979	2.816
203909.253	486972.215	2.724
203908.917	486972.379	2.414
203908.469	486972.680	2.519
203908.022	486972.982	2.629
203907.663	486973.174	2.408
203906.775	486973.778	2.651
203906.398	486973.995	2.513
203905.554	486974.549	2.626
203914.035	486970.382	12.747
203911.834	486970.264	3.417
203911.501	486970.424	3.102
203911.092	486970.672	3.033
203910.641	486970.971	3.112
203910.311	486971.128	2.784
203909.396	486971.986	4.494
203909.475	486971.651	2.738
203909.121	486971.835	2.490
203908.687	486972.119	2.538
203908.227	486972.435	2.690
203907.841	486972.660	2.569
203907.425	486972.925	2.571
203906.611	486973.433	2.518
203905.794	486973.949	2.504
203913.835	486970.420	14.827
203914.170	486969.729	11.886
203913.593	486969.808	10.120
203912.372	486970.944	12.348
203910.880	486971.256	8.441
203911.211	486970.228	3.405
203910.894	486970.370	3.038
203910.499	486970.602	2.926
203909.665	486971.121	2.865
203909.281	486971.342	2.725
203908.895	486971.566	2.596
203908.463	486971.846	2.636
203908.050	486972.104	2.613
203907.671	486972.320	2.465
203907.248	486972.594	2.494
203906.857	486972.826	2.397
203906.358	486973.199	2.747
203906.048	486973.328	2.330
203913.718	486970.018	14.600
203914.104	486969.446	12.583
203913.383	486968.524	4.085
203912.458	486969.138	4.252
203912.141	486969.281	3.895
203910.257	486970.337	3.045
203909.788	486970.658	3.191
203909.458	486970.815	2.866
203909.107	486970.995	2.607
203908.718	486971.223	2.488
203908.273	486971.518	2.573
203907.814	486971.834	2.725
203907.443	486972.041	2.550
203911.818	486970.669	13.890
203912.750	486968.492	4.122
203911.944	486968.973	3.936
203909.373	486971.696	10.678
203909.206	486971.684	9.954
203910.085	486970.000	3.004
203909.529	486970.425	3.451
203909.293	486970.468	2.798
203908.904	486970.695	2.676
203908.522	486970.913	2.529
203908.098	486971.184	2.541
203907.689	486971.436	2.500
203907.248	486971.730	2.591
203913.795	486968.554	11.338
203912.086	486968.482	4.229
203909.215	486971.527	11.789
203910.967	486969.104	3.688
203910.246	486969.488	3.242
203909.777	486969.808	3.386
203909.442	486969.970	3.077
203909.067	486970.180	2.908
203908.712	486970.366	2.667
203908.299	486970.621	2.630
203907.915	486970.843	2.495
203907.453	486971.162	2.657
203907.053	486971.404	2.592
203904.990	486972.711	2.595
203911.962	486968.903	9.008
203912.059	486968.601	7.525
203911.891	486968.170	4.216
203911.087	486968.650	4.036
203909.087	486970.733	9.075
203910.381	486969.018	3.551
203910.004	486969.230	3.384
203909.562	486969.518	3.437
203909.212	486969.698	3.183
203908.861	486969.880	2.932
203908.482	486970.094	2.774
203908.083	486970.333	2.692
203907.697	486970.557	2.566
203907.269	486970.834	2.599
203905.595	486971.903	2.661
203909.268	486971.489	17.170
203908.461	486972.201	18.416
203909.386	486971.010	14.679
203910.141	486968.746	3.651
203909.734	486968.992	3.584
203909.385	486969.171	3.329
203909.024	486969.365	3.112
203908.630	486969.597	3.006
203908.255	486969.807	2.839
203907.861	486970.040	2.739
203907.064	486970.519	2.583
203904.944	486971.895	2.796
203909.261	486971.314	18.711
203909.121	486971.134	17.054
203911.450	486968.217	8.138
203908.376	486971.432	15.985
203908.222	486971.239	14.194
203910.272	486968.291	4.000
203909.908	486968.488	3.795
203909.502	486968.734	3.728
203909.186	486968.875	3.364
203908.804	486969.093	3.221
203908.424	486969.309	3.070
203908.102	486969.454	2.711
203907.657	486969.749	2.794
203906.829	486970.267	2.758
203911.587	486969.307	18.037
203909.156	486970.754	17.489
203909.236	486969.774	11.748
203909.713	486968.192	3.843
203909.288	486968.460	3.840
203908.954	486968.623	3.540
203908.628	486968.774	3.205
203908.234	486969.006	3.100
203905.429	486970.707	2.659
203909.218	486969.432	12.361
203908.743	486968.305	3.555
203908.367	486968.516	3.394
203908.055	486968.650	3.006
203906.469	486969.595	2.657
203907.370	486970.790	16.138
203908.149	486968.243	3.449
203907.747	486968.486	3.382
203906.604	486969.140	2.966
203905.807	486969.619	2.826
203910.256	486968.663	16.978
203908.941	486968.875	13.164
203907.558	486968.160	3.362
203905.259	486969.484	2.588
203908.968	486968.516	13.707
203906.226	486968.514	3.008
203905.415	486969.011	2.924
203905.554	486968.521	3.228
203905.211	486968.692	2.953
203908.457	486968.188	15.111
203905.410	486968.143	2.981
203905.703	486969.628	16.004
203905.122	486968.204	3.069
203904.937	486968.795	2.884
203905.281	486968.447	3.030
203905.109	486969.069	2.715
203905.832	486968.286	3.368
203905.303	486969.250	2.812
203905.651	486968.893	2.997
203905.976	486968.591	2.963
203906.309	486968.266	3.028
203905.481	486969.497	2.645
203905.834	486969.129	2.869
203906.178	486968.780	3.028
203904.977	486970.370	2.528
203905.317	486970.037	2.602
203905.658	486969.700	2.698
203905.148	486970.589	2.544
203905.471	486970.295	2.464
203905.816	486969.951	2.588
203906.171	486969.579	2.832
203906.496	486969.274	2.808
203906.837	486968.931	2.951
203904.987	486971.163	2.480
203905.325	486970.837	2.522
203905.650	486970.539	2.462
203906.012	486970.153	2.750
203906.339	486969.849	2.724
203906.666	486969.541	2.709
203907.010	486969.190	2.881
203907.360	486968.818	3.153
203907.701	486968.468	3.340
203905.171	486971.365	2.562
203905.503	486971.052	2.557
203905.834	486970.741	2.544
203906.178	486970.397	2.669
203906.504	486970.094	2.633
203907.161	486969.473	2.635
203907.514	486969.095	2.926
203907.862	486968.729	3.182
203905.027	486971.894	2.590
203905.359	486971.584	2.573
203905.688	486971.276	2.549
203906.027	486970.946	2.613
203906.381	486970.578	2.835
203906.683	486970.333	2.568
203907.360	486969.663	2.774
203907.700	486969.318	2.929
203908.036	486968.983	3.049
203908.384	486968.609	3.346
203908.756	486968.162	3.987
203904.890	486972.373	2.755
203905.206	486972.096	2.611
203905.530	486971.801	2.536
203905.862	486971.488	2.531
203907.192	486970.219	2.614
203907.878	486969.521	2.952
203908.548	486968.851	3.204
203905.041	486972.665	2.508
203905.386	486972.327	2.594
203905.710	486972.034	2.510
203906.037	486971.731	2.467
203906.372	486971.411	2.493
203907.054	486970.739	2.690
203907.368	486970.464	2.540
203908.064	486969.741	2.985
203908.723	486969.100	3.111
203905.107	486971.694	11.236
203906.340	486969.837	15.919
203905.204	486972.902	2.467
203905.548	486972.566	2.543
203905.884	486972.245	2.565
203906.211	486971.945	2.512
203906.534	486971.652	2.433
203907.543	486970.673	2.615
203908.564	486969.644	3.064
203908.918	486969.256	3.430
203909.589	486968.566	3.811
203906.513	486970.049	15.964
203905.045	486973.420	2.542
203905.721	486972.776	2.588
203906.033	486972.508	2.407
203906.379	486972.166	2.518
203906.724	486971.822	2.641
203907.054	486971.513	2.632
203907.709	486970.899	2.602
203905.549	486973.338	2.577
203906.171	486972.404	4.930
203906.517	486972.467	2.296
203906.880	486972.083	2.573
203907.207	486971.781	2.535
203907.555	486971.427	2.712
203908.198	486970.841	2.571
203908.545	486970.483	2.785
203908.889	486970.128	2.992
203909.564	486969.441	3.338
203905.112	486972.173	15.816
203906.000	486971.028	17.902
203906.366	486972.963	2.472
203906.687	486972.675	2.371
203907.037	486972.321	2.533
203907.380	486971.983	2.640
203907.699	486971.698	2.537
203909.129	486968.686	13.801
203908.363	486971.061	2.608
203908.708	486970.707	2.803
203909.048	486970.364	2.962
203909.730	486969.657	3.396
203911.059	486968.291	4.169
203906.204	486973.533	2.450
203906.551	486973.190	2.558
203907.530	486972.293	2.398
203907.877	486971.943	2.556
203909.229	486969.123	13.026
203908.544	486971.300	2.656
203908.863	486971.014	2.560
203910.228	486969.604	3.407
203911.239	486968.531	4.228
203911.548	486968.255	4.123
203906.709	486973.445	2.439
203907.056	486973.101	2.560
203907.414	486972.728	2.799
203907.714	486972.489	2.510
203908.040	486972.187	2.475
203909.366	486969.431	12.684
203908.725	486971.503	2.750
203909.040	486971.227	2.615
203909.722	486970.532	2.975
203910.053	486970.206	3.071
203910.400	486969.832	3.395
203912.039	486968.173	4.184
203907.227	486973.342	2.536
203909.440	486969.916	11.655
203911.825	486968.197	8.115
203911.897	486968.717	4.138
203912.220	486968.393	4.280
203912.528	486968.119	4.169
203904.955	486974.644	10.651
203907.378	486973.565	2.545
203907.701	486973.276	2.457
203909.037	486971.997	2.620
203909.370	486971.675	2.679
203909.702	486971.354	2.741
203910.030	486971.043	2.767
203910.536	486970.223	5.103
203911.041	486970.013	3.318
203911.379	486969.655	3.588
203911.969	486968.455	7.978
203912.678	486968.358	4.120
203905.153	486976.061	2.414
203908.515	486971.234	13.752
203907.532	486973.800	2.618
203907.860	486973.496	2.588
203908.191	486973.185	2.589
203909.844	486971.621	2.688
203910.181	486971.285	2.821
203910.856	486970.598	3.182
203911.539	486969.868	3.788
203912.101	486968.758	7.738
203912.531	486968.831	4.509
203912.842	486968.547	4.458
203913.139	486968.321	4.104
203904.961	486976.643	2.372
203905.307	486976.314	2.407
203905.635	486976.020	2.320
203906.682	486975.000	2.582
203908.547	486971.410	15.070
203909.188	486970.711	15.739
203909.491	486971.641	7.508
203910.347	486971.514	2.929
203912.342	486969.496	3.938
203913.312	486968.516	4.420
203913.625	486968.224	4.412
203906.140	486975.926	2.339
203906.521	486975.521	2.669
203907.171	486974.937	2.504
203907.486	486974.667	2.334
203910.788	486969.520	16.274
203911.161	486971.140	2.929
203911.495	486970.803	3.089
203904.960	486977.401	2.436
203905.317	486977.053	2.535
203905.654	486976.741	2.513
203906.326	486976.119	2.467
203909.450	486971.335	15.117
203910.494	486971.394	8.087
203910.351	486972.296	2.870
203910.652	486972.060	2.565
203911.323	486971.394	2.828
203911.654	486971.067	2.939
203912.329	486970.365	3.424
203913.313	486969.364	3.976
203913.638	486969.028	4.191
203913.949	486968.746	4.124
203914.268	486968.429	4.256
203904.870	486977.774	3.062
203905.237	486977.406	3.236
203905.580	486977.080	3.269
203906.145	486976.668	2.485
203908.591	486972.085	18.088
203909.487	486971.485	16.481
203909.118	486972.660	10.841
203910.138	486970.744	17.381
203909.169	486973.828	2.589
203911.205	486970.210	14.241
203911.474	486971.653	2.741
203911.836	486971.235	3.282
203912.145	486970.974	3.093
203913.488	486969.540	4.310
203914.105	486969.001	4.057
203914.422	486968.692	4.140
203908.531	486972.481	18.546
203906.625	486976.630	2.457
203906.948	486976.347	2.337
203909.371	486971.666	18.756
203908.009	486975.293	2.770
203912.171	486970.322	10.146
203913.160	486968.509	16.188
203912.620	486970.932	3.167
203913.141	486969.936	6.623
203913.603	486969.084	9.480
203913.629	486969.847	4.139
203913.956	486969.503	4.404
203914.576	486968.949	4.233
203914.887	486968.667	4.181
203915.199	486968.380	4.150
203905.427	486978.133	2.485
203906.431	486977.217	2.351
203909.537	486971.897	18.796
203907.829	486975.860	2.720
203910.153	486973.689	2.757
203911.893	486969.759	18.402
203911.854	486970.314	14.888
203911.113	486972.832	2.496
203912.347	486971.147	6.129
203912.783	486971.176	3.178
203914.424	486969.501	4.172
203914.738	486969.207	4.176
203915.048	486968.935	4.065
203915.366	486968.615	4.221
203905.574	486978.356	2.525
203905.900	486978.069	2.415
203906.584	486977.430	2.430
203906.923	486977.116	2.423
203907.288	486976.745	2.628
203912.154	486970.634	13.373
203912.260	486972.090	2.824
203912.599	486971.740	3.054
203913.828	486968.452	17.602
203913.631	486970.596	4.303
203914.244	486970.079	3.937
203914.568	486969.748	4.135
203915.518	486968.827	4.391
203915.821	486968.590	4.077
203905.372	486978.956	2.410
203905.728	486978.614	2.487
203906.423	486977.957	2.564
203906.759	486977.649	2.535
203907.092	486977.346	2.490
203910.433	486974.243	2.479
203911.852	486971.628	11.276
203912.906	486970.885	9.674
203913.122	486970.860	8.476
203913.819	486969.972	10.112
203914.498	486968.297	17.194
203914.119	486970.524	4.468
203914.408	486970.335	3.928
203914.727	486970.030	3.988
203915.361	486969.418	4.137
203915.676	486969.118	4.185
203915.993	486968.802	4.334
203905.165	486979.526	2.388
203905.501	486979.223	2.329
203905.857	486978.881	2.406
203906.202	486978.559	2.419
203906.535	486978.258	2.359
203906.879	486977.937	2.377
203907.250	486977.558	2.609
203907.581	486977.258	2.556
203911.358	486972.107	13.724
203911.244	486973.852	2.594
203912.561	486972.608	2.740
203913.919	486970.378	9.322
203914.242	486970.855	4.039
203914.866	486970.304	3.854
203915.509	486969.657	4.189
203916.257	486968.303	8.671
203916.449	486968.777	4.242
203916.759	486968.504	4.139
203905.344	486979.754	2.474
203905.677	486979.457	2.397
203906.040	486979.102	2.522
203906.389	486978.772	2.564
203906.721	486978.475	2.494
203907.063	486978.157	2.503
203913.396	486970.296	15.994
203913.845	486970.087	14.586
203914.131	486970.491	10.048
203916.307	486969.338	4.191
203916.617	486969.067	4.076
203916.932	486968.758	4.190
203917.244	486968.465	4.218
203905.129	486980.338	2.418
203905.472	486980.024	2.395
203905.832	486979.677	2.488
203906.163	486979.383	2.403
203906.535	486979.009	2.597
203907.179	486978.453	2.327
203907.546	486978.085	2.520
203910.224	486975.613	2.465
203912.670	486971.933	12.059
203916.454	486969.590	4.194
203916.765	486969.308	4.148
203917.079	486969.012	4.184
203917.389	486968.745	4.053
203918.014	486968.140	4.224
203904.919	486980.942	2.345
203905.294	486980.571	2.508
203905.634	486980.263	2.466
203905.987	486979.930	2.512
203906.676	486979.290	2.526
203907.012	486978.985	2.485
203907.351	486978.676	2.465
203908.035	486978.038	2.500
203911.135	486974.095	9.788
203912.580	486972.352	12.551
203912.050	486974.293	2.717
203913.356	486973.079	2.755
203913.675	486972.798	2.666
203915.607	486969.922	10.049
203915.666	486970.743	4.112
203916.610	486969.861	4.168
203916.921	486969.588	4.072
203917.238	486969.265	4.275
203906.092	486980.235	2.382
203906.805	486979.554	2.538
203907.133	486979.265	2.439
203907.469	486978.961	2.400
203907.813	486978.638	2.431
203913.276	486971.612	15.844
203913.151	486973.682	2.602
203913.477	486973.380	2.608
203914.951	486971.506	6.075
203915.176	486971.561	4.300
203916.109	486970.743	3.998
203916.771	486968.514	14.961
203916.747	486970.109	4.302
203917.057	486969.843	4.168
203917.369	486969.561	4.124
203917.680	486969.286	4.042
203905.207	486981.424	2.437
203905.876	486980.831	2.273
203906.226	486980.506	2.290
203906.922	486979.857	2.332
203907.291	486979.491	2.509
203907.630	486979.181	2.489
203913.240	486971.894	16.807
203912.969	486974.257	2.494
203913.305	486973.929	2.615
203914.822	486971.951	6.540
203915.757	486970.095	13.270
203916.123	486969.466	15.243
203916.260	486971.017	3.882
203916.583	486970.684	4.117
203916.900	486970.379	4.206
203917.210	486970.110	4.091
203917.530	486969.772	4.383
203917.935	486968.533	10.243
203904.993	486981.989	2.412
203905.361	486981.636	2.515
203905.678	486981.371	2.329
203906.047	486981.013	2.456
203906.384	486980.711	2.398
203906.718	486980.415	2.322
203907.070	486980.083	2.373
203907.437	486979.722	2.531
203907.788	486979.390	2.597
203912.930	486973.327	11.594
203914.360	486972.066	11.217
203914.597	486971.973	10.373
203914.740	486972.214	7.847
203915.680	486970.392	14.324
203915.756	486970.944	10.114
203916.074	486971.642	3.408
203916.412	486971.250	3.954
203916.726	486970.965	3.923
203917.050	486970.620	4.239
203917.512	486969.281	10.432
203917.675	486970.054	4.178
203918.926	486968.859	4.470
203919.547	486968.345	4.080
203905.484	486981.911	2.364
203905.843	486981.573	2.423
203906.167	486981.297	2.276
203907.578	486979.970	2.474
203907.916	486979.664	2.445
203911.544	486974.678	13.638
203910.958	486976.862	2.495
203913.028	486972.799	17.122
203912.907	486973.539	12.861
203913.008	486973.762	10.730
203914.275	486971.349	19.182
203914.668	486972.484	9.054
203915.732	486970.269	17.423
203915.678	486972.124	5.209
203916.233	486971.869	3.477
203916.579	486971.438	4.250
203916.901	486971.107	4.485
203917.206	486970.867	4.210
203917.519	486970.584	4.174
203918.290	486968.555	13.119
203919.705	486968.561	4.269
203920.017	486968.294	4.142
203904.919	486982.823	2.357
203905.270	486982.501	2.354
203905.618	486982.185	2.334
203907.003	486980.920	2.291
203907.720	486980.234	2.481
203908.411	486979.594	2.530
203912.282	486974.379	13.781
203912.080	486976.259	2.312
203913.084	486975.313	2.473
203913.741	486974.708	2.487
203914.740	486973.744	2.814
203915.382	486973.169	2.714
203915.863	486972.239	6.018
203916.371	486972.178	3.275
203916.933	486970.670	9.997
203917.040	486971.423	4.233
203917.353	486971.145	4.175
203917.663	486970.881	4.030
203918.151	486969.175	12.556
203918.293	486970.292	4.112
203918.605	486970.011	4.072
203905.060	486983.078	2.407
203905.728	486982.495	2.204
203908.518	486979.920	2.330
203910.618	486977.906	2.932
203910.908	486977.699	2.537
203913.132	486974.236	12.175
203913.216	486975.605	2.394
203913.882	486974.975	2.524
203914.202	486974.696	2.422
203914.857	486974.091	2.459
203915.183	486973.790	2.471
203915.803	486972.390	8.102
203916.539	486971.270	11.113
203916.768	486971.281	9.619
203917.014	486971.249	8.312
203917.614	486969.329	17.583
203917.486	486971.464	3.924
203918.353	486968.972	15.411
203918.562	486969.317	11.785
203918.890	486968.488	15.354
203919.997	486969.146	4.039
203920.308	486968.842	4.169
203920.929	486968.269	4.187
203904.906	486983.590	2.717
203905.228	486983.320	2.552
203905.554	486983.043	2.407
203906.262	486982.390	2.445
203910.361	486978.652	2.347
203913.300	486974.476	12.378
203914.203	486973.087	16.180
203914.851	486972.299	17.494
203915.472	486972.819	10.146
203915.800	486972.430	10.743
203916.468	486971.562	12.476
203917.403	486970.364	14.788
203917.517	486970.981	9.914
203917.950	486971.480	3.865
203918.267	486971.177	3.949
203918.584	486970.870	4.064
203919.054	486968.662	16.080
203919.281	486969.084	11.821
203919.843	486968.894	9.624
203920.133	486968.623	9.665
203921.395	486968.303	4.022
203905.014	486983.899	2.547
203905.361	486983.587	2.512
